1.954710960388183594e+00 2.002967596054077148e+00 2.053667545318603516e+00 2.107000589370727539e+00 2.163177490234375000e+00 2.222432136535644531e+00 2.227993488311767578e+00 2.227993488311767578e+00 2.227993726730346680e+00 2.227993726730346680e+00 2.227993726730346680e+00 2.227993726730346680e+00 2.227993726730346680e+00 2.227993726730346680e+00 2.227993965148925781e+00 2.227993965148925781e+00 2.227993965148925781e+00 2.227993965148925781e+00 2.227993965148925781e+00 2.227993965148925781e+00 2.227994203567504883e+00 2.227994203567504883e+00 2.227994203567504883e+00 2.227994441986083984e+00 2.227994441986083984e+00 2.227994441986083984e+00 2.227994441986083984e+00 2.227994441986083984e+00 2.227994441986083984e+00 2.227994680404663086e+00 2.227994680404663086e+00 2.227994680404663086e+00 2.227994680404663086e+00 2.227994680404663086e+00 2.227994680404663086e+00 2.227994918823242188e+00 1.928206920623779297e+00 1.919557213783264160e+00 1.921316266059875488e+00 1.989635109901428223e+00 1.675616741180419922e+00 1.584030151367187500e+00 1.552898049354553223e+00 1.556291222572326660e+00 1.656998872756958008e+00 1.659655809402465820e+00 1.573625564575195312e+00 1.571317791938781738e+00 1.568388581275939941e+00 2.227995634078979492e+00 2.227995634078979492e+00 2.227995634078979492e+00 2.227995634078979492e+00 2.227995872497558594e+00 2.227995872497558594e+00 2.227995872497558594e+00 2.227995872497558594e+00 2.227995872497558594e+00 2.227995872497558594e+00 2.227996110916137695e+00 2.227996110916137695e+00 2.227996110916137695e+00 2.227996349334716797e+00 2.227996349334716797e+00 2.227996349334716797e+00 2.227996349334716797e+00 2.227996349334716797e+00 2.227996349334716797e+00 2.227996587753295898e+00 2.227996587753295898e+00 2.227996587753295898e+00 2.227996826171875000e+00 2.227996826171875000e+00 2.227996826171875000e+00 2.227996826171875000e+00 2.227996826171875000e+00 2.227996826171875000e+00 2.227997064590454102e+00 2.222279787063598633e+00 2.163030147552490234e+00 2.106858015060424805e+00 2.053529500961303711e+00 2.002834081649780273e+00 1.954581379890441895e+00
1.954707622528076172e+00 2.002964019775390625e+00 2.053663730621337891e+00 2.106996536254882812e+00 2.163173198699951172e+00 2.222427845001220703e+00 2.227993488311767578e+00 2.227993488311767578e+00 2.227993726730346680e+00 2.227993726730346680e+00 2.227993726730346680e+00 2.227993726730346680e+00 2.227993726730346680e+00 2.227993726730346680e+00 2.227993965148925781e+00 2.227993965148925781e+00 2.227993965148925781e+00 2.227993965148925781e+00 2.227993965148925781e+00 2.227993965148925781e+00 2.227994203567504883e+00 2.227994203567504883e+00 2.227994203567504883e+00 2.227994441986083984e+00 2.227994441986083984e+00 2.227994441986083984e+00 2.227994441986083984e+00 2.227994441986083984e+00 2.227994441986083984e+00 2.227994441986083984e+00 2.227994680404663086e+00 2.227994680404663086e+00 2.227994680404663086e+00 2.227994680404663086e+00 2.227994680404663086e+00 2.227994680404663086e+00 1.928481221199035645e+00 1.916176915168762207e+00 1.918047666549682617e+00 2.227995157241821289e+00 1.679190516471862793e+00 1.581682920455932617e+00 1.552133440971374512e+00 1.555292963981628418e+00 1.671605229377746582e+00 1.674134254455566406e+00 1.571871757507324219e+00 1.569788336753845215e+00 1.566940426826477051e+00 2.227995634078979492e+00 2.227995634078979492e+00 2.227995634078979492e+00 2.227995634078979492e+00 2.227995872497558594e+00 2.227995872497558594e+00 2.227995872497558594e+00 2.227995872497558594e+00 2.227995872497558594e+00 2.227995872497558594e+00 2.227996110916137695e+00 2.227996110916137695e+00 2.227996110916137695e+00 2.227996349334716797e+00 2.227996349334716797e+00 2.227996349334716797e+00 2.227996349334716797e+00 2.227996349334716797e+00 2.227996349334716797e+00 2.227996587753295898e+00 2.227996587753295898e+00 2.227996587753295898e+00 2.227996826171875000e+00 2.227996826171875000e+00 2.227996826171875000e+00 2.227996826171875000e+00 2.227996826171875000e+00 2.227996826171875000e+00 2.227997064590454102e+00 2.222279787063598633e+00 2.163030147552490234e+00 2.106858015060424805e+00 2.053529500961303711e+00 2.002834081649780273e+00 1.954581379890441895e+00
1.954703927040100098e+00 2.002960443496704102e+00 2.053659915924072266e+00 2.106992483139038086e+00 2.163169145584106445e+00 2.222423315048217773e+00 2.227993488311767578e+00 2.227993488311767578e+00 2.227993488311767578e+00 2.227993726730346680e+00 2.227993726730346680e+00 2.227993726730346680e+00 2.227993726730346680e+00 2.227993726730346680e+00 2.227993726730346680e+00 2.227993965148925781e+00 2.227993965148925781e+00 2.227993965148925781e+00 2.227993965148925781e+00 2.227993965148925781e+00 2.227993965148925781e+00 2.227994203567504883e+00 2.227994203567504883e+00 2.227994203567504883e+00 2.227994441986083984e+00 2.227994441986083984e+00 2.227994441986083984e+00 2.227994441986083984e+00 2.227994441986083984e+00 2.227994441986083984e+00 2.227994680404663086e+00 2.227994680404663086e+00 2.227994680404663086e+00 2.227994680404663086e+00 2.227994680404663086e+00 2.227994680404663086e+00 1.930724859237670898e+00 1.912880659103393555e+00 1.914837479591369629e+00 2.227995157241821289e+00 2.227995157241821289e+00 1.588731884956359863e+00 1.557191014289855957e+00 1.560633420944213867e+00 1.582642912864685059e+00 1.579464077949523926e+00 1.577331304550170898e+00 1.575344800949096680e+00 1.572018980979919434e+00 2.227995634078979492e+00 2.227995634078979492e+00 2.227995634078979492e+00 2.227995634078979492e+00 2.227995872497558594e+00 2.227995872497558594e+00 2.227995872497558594e+00 2.227995872497558594e+00 2.227995872497558594e+00 2.227995872497558594e+00 2.227996110916137695e+00 2.227996110916137695e+00 2.227996110916137695e+00 2.227996110916137695e+00 2.227996349334716797e+00 2.227996349334716797e+00 2.227996349334716797e+00 2.227996349334716797e+00 2.227996349334716797e+00 2.227996349334716797e+00 2.227996587753295898e+00 2.227996587753295898e+00 2.227996587753295898e+00 2.227996826171875000e+00 2.227996826171875000e+00 2.227996826171875000e+00 2.227996826171875000e+00 2.227996826171875000e+00 2.227996826171875000e+00 2.222279787063598633e+00 2.163030385971069336e+00 2.106858253479003906e+00 2.053529739379882812e+00 2.002834081649780273e+00 1.954581379890441895e+00
1.954700469970703125e+00 2.002956867218017578e+00 2.053656101226806641e+00 2.106988430023193359e+00 2.163164854049682617e+00 2.222418785095214844e+00 2.227993488311767578e+00 2.227993488311767578e+00 2.227993488311767578e+00 2.227993726730346680e+00 2.227993726730346680e+00 2.227993726730346680e+00 2.227993726730346680e+00 2.227993726730346680e+00 2.227993726730346680e+00 2.227993965148925781e+00 2.227993965148925781e+00 2.227993965148925781e+00 2.227993965148925781e+00 2.227993965148925781e+00 2.227993965148925781e+00 2.227994203567504883e+00 2.227994203567504883e+00 2.227994203567504883e+00 2.227994441986083984e+00 2.227994441986083984e+00 2.227994441986083984e+00 2.227994441986083984e+00 2.227994441986083984e+00 2.227994441986083984e+00 2.227994680404663086e+00 2.227994680404663086e+00 2.227994680404663086e+00 2.227994680404663086e+00 2.227994680404663086e+00 2.227994680404663086e+00 1.934068918228149414e+00 1.909670829772949219e+00 1.911777377128601074e+00 2.227994918823242188e+00 2.227995157241821289e+00 1.618463397026062012e+00 1.571639299392700195e+00 1.564629435539245605e+00 1.577690720558166504e+00 1.575943470001220703e+00 1.583759307861328125e+00 1.572504401206970215e+00 1.586382627487182617e+00 2.227995634078979492e+00 2.227995634078979492e+00 2.227995634078979492e+00 2.227995634078979492e+00 2.227995634078979492e+00 2.227995872497558594e+00 2.227995872497558594e+00 2.227995872497558594e+00 2.227995872497558594e+00 2.227995872497558594e+00 2.227995872497558594e+00 2.227996110916137695e+00 2.227996110916137695e+00 2.227996110916137695e+00 2.227996349334716797e+00 2.227996349334716797e+00 2.227996349334716797e+00 2.227996349334716797e+00 2.227996349334716797e+00 2.227996349334716797e+00 2.227996587753295898e+00 2.227996587753295898e+00 2.227996587753295898e+00 2.227996826171875000e+00 2.227996826171875000e+00 2.227996826171875000e+00 2.227996826171875000e+00 2.227996826171875000e+00 2.227996826171875000e+00 2.222279787063598633e+00 2.163030385971069336e+00 2.106858253479003906e+00 2.053529739379882812e+00 2.002834081649780273e+00 1.954581379890441895e+00
1.954697132110595703e+00 2.002953052520751953e+00 2.053652286529541016e+00 2.106984615325927734e+00 2.163160562515258789e+00 2.222414493560791016e+00 2.227993249893188477e+00 2.227993488311767578e+00 2.227993488311767578e+00 2.227993488311767578e+00 2.227993726730346680e+00 2.227993726730346680e+00 2.227993726730346680e+00 2.227993726730346680e+00 2.227993726730346680e+00 2.227993726730346680e+00 2.227993965148925781e+00 2.227993965148925781e+00 2.227993965148925781e+00 2.227993965148925781e+00 2.227993965148925781e+00 2.227993965148925781e+00 2.227994203567504883e+00 2.227994203567504883e+00 2.227994203567504883e+00 2.227994441986083984e+00 2.227994441986083984e+00 2.227994441986083984e+00 2.227994441986083984e+00 2.227994441986083984e+00 2.227994441986083984e+00 2.227994680404663086e+00 2.227994680404663086e+00 2.227994680404663086e+00 2.227994680404663086e+00 2.227994680404663086e+00 1.941327691078186035e+00 1.906453609466552734e+00 1.908763647079467773e+00 1.914085984230041504e+00 1.934442996978759766e+00 1.938204765319824219e+00 1.585864424705505371e+00 1.564497947692871094e+00 1.556824922561645508e+00 1.555256009101867676e+00 1.559185266494750977e+00 1.571647524833679199e+00 2.227995634078979492e+00 2.227995634078979492e+00 2.227995634078979492e+00 2.227995634078979492e+00 2.227995634078979492e+00 2.227995634078979492e+00 2.227995872497558594e+00 2.227995872497558594e+00 2.227995872497558594e+00 2.227995872497558594e+00 2.227995872497558594e+00 2.227995872497558594e+00 2.227996110916137695e+00 2.227996110916137695e+00 2.227996110916137695e+00 2.227996349334716797e+00 2.227996349334716797e+00 2.227996349334716797e+00 2.227996349334716797e+00 2.227996349334716797e+00 2.227996349334716797e+00 2.227996349334716797e+00 2.227996587753295898e+00 2.227996587753295898e+00 2.227996587753295898e+00 2.227996826171875000e+00 2.227996826171875000e+00 2.227996826171875000e+00 2.227996826171875000e+00 2.227996826171875000e+00 2.222279787063598633e+00 2.163030385971069336e+00 2.106858253479003906e+00 2.053529739379882812e+00 2.002834081649780273e+00 1.954581379890441895e+00
1.954693675041198730e+00 2.002949476242065430e+00 2.053648471832275391e+00 2.106980562210083008e+00 2.163156509399414062e+00 2.222409725189208984e+00 2.227993249893188477e+00 2.227993488311767578e+00 2.227993488311767578e+00 2.227993488311767578e+00 2.227993726730346680e+00 2.227993726730346680e+00 2.227993726730346680e+00 2.227993726730346680e+00 2.227993726730346680e+00 2.227993726730346680e+00 2.227993965148925781e+00 2.227993965148925781e+00 2.227993965148925781e+00 2.227993965148925781e+00 2.227993965148925781e+00 2.227993965148925781e+00 2.227994203567504883e+00 2.227994203567504883e+00 2.227994203567504883e+00 2.227994441986083984e+00 2.227994441986083984e+00 2.227994441986083984e+00 2.227994441986083984e+00 2.227994441986083984e+00 2.227994441986083984e+00 2.227994680404663086e+00 2.227994680404663086e+00 2.227994680404663086e+00 2.227994680404663086e+00 2.227994680404663086e+00 1.951519370079040527e+00 1.903165340423583984e+00 1.905823111534118652e+00 1.908787250518798828e+00 1.912181615829467773e+00 1.915935397148132324e+00 1.601466655731201172e+00 1.575860142707824707e+00 1.565648913383483887e+00 1.563897848129272461e+00 1.560232281684875488e+00 1.573092103004455566e+00 2.227995395660400391e+00 2.227995634078979492e+00 2.227995634078979492e+00 2.227995634078979492e+00 2.227995634078979492e+00 2.227995634078979492e+00 2.227995634078979492e+00 2.227995872497558594e+00 2.227995872497558594e+00 2.227995872497558594e+00 2.227995872497558594e+00 2.227995872497558594e+00 2.227995872497558594e+00 2.227996110916137695e+00 2.227996110916137695e+00 2.227996110916137695e+00 2.227996349334716797e+00 2.227996349334716797e+00 2.227996349334716797e+00 2.227996349334716797e+00 2.227996349334716797e+00 2.227996349334716797e+00 2.227996587753295898e+00 2.227996587753295898e+00 2.227996587753295898e+00 2.227996826171875000e+00 2.227996826171875000e+00 2.227996826171875000e+00 2.227996826171875000e+00 2.227996826171875000e+00 2.222280025482177734e+00 2.163030385971069336e+00 2.106858253479003906e+00 2.053529739379882812e+00 2.002834081649780273e+00 1.954581379890441895e+00
1.954690217971801758e+00 2.002945899963378906e+00 2.053644657135009766e+00 2.106976509094238281e+00 2.163152217864990234e+00 2.222405433654785156e+00 2.227993249893188477e+00 2.227993249893188477e+00 2.227993488311767578e+00 2.227993488311767578e+00 2.227993488311767578e+00 2.227993726730346680e+00 2.227993726730346680e+00 2.227993726730346680e+00 2.227993726730346680e+00 2.227993726730346680e+00 2.227993726730346680e+00 2.227993965148925781e+00 2.227993965148925781e+00 2.227993965148925781e+00 2.227993965148925781e+00 2.227993965148925781e+00 2.227993965148925781e+00 2.227994203567504883e+00 2.227994203567504883e+00 2.227994203567504883e+00 2.227994441986083984e+00 2.227994441986083984e+00 2.227994441986083984e+00 2.227994441986083984e+00 2.227994441986083984e+00 2.227994441986083984e+00 2.227994680404663086e+00 2.227994680404663086e+00 2.227994680404663086e+00 2.227994680404663086e+00 1.972508668899536133e+00 1.900183320045471191e+00 1.902514338493347168e+00 1.905821442604064941e+00 1.908862709999084473e+00 1.912074208259582520e+00 1.915316820144653320e+00 1.918581843376159668e+00 1.921797513961791992e+00 1.925127029418945312e+00 2.227995395660400391e+00 2.227995395660400391e+00 2.227995395660400391e+00 2.227995634078979492e+00 2.227995634078979492e+00 2.227995634078979492e+00 2.227995634078979492e+00 2.227995634078979492e+00 2.227995634078979492e+00 2.227995872497558594e+00 2.227995872497558594e+00 2.227995872497558594e+00 2.227995872497558594e+00 2.227995872497558594e+00 2.227995872497558594e+00 2.227996110916137695e+00 2.227996110916137695e+00 2.227996110916137695e+00 2.227996349334716797e+00 2.227996349334716797e+00 2.227996349334716797e+00 2.227996349334716797e+00 2.227996349334716797e+00 2.227996349334716797e+00 2.227996587753295898e+00 2.227996587753295898e+00 2.227996587753295898e+00 2.227996826171875000e+00 2.227996826171875000e+00 2.227996826171875000e+00 2.227996826171875000e+00 2.227996826171875000e+00 2.222280025482177734e+00 2.163030385971069336e+00 2.106858253479003906e+00 2.053529739379882812e+00 2.002834320068359375e+00 1.954581618309020996e+00
1.954686880111694336e+00 2.002942323684692383e+00 2.053640842437744141e+00 2.106972455978393555e+00 2.163147926330566406e+00 2.222400903701782227e+00 2.227993249893188477e+00 2.227993249893188477e+00 2.227993488311767578e+00 2.227993488311767578e+00 2.227993488311767578e+00 2.227993726730346680e+00 2.227993726730346680e+00 2.227993726730346680e+00 2.227993726730346680e+00 2.227993726730346680e+00 2.227993726730346680e+00 2.227993965148925781e+00 2.227993965148925781e+00 2.227993965148925781e+00 2.227993965148925781e+00 2.227993965148925781e+00 2.227993965148925781e+00 2.227994203567504883e+00 2.227994203567504883e+00 2.227994203567504883e+00 2.227994441986083984e+00 2.227994441986083984e+00 2.227994441986083984e+00 2.227994441986083984e+00 2.227994441986083984e+00 2.227994441986083984e+00 2.227994680404663086e+00 2.227994680404663086e+00 2.227994680404663086e+00 2.227994680404663086e+00 2.227994680404663086e+00 1.907945871353149414e+00 1.898731589317321777e+00 1.902441740036010742e+00 1.905834317207336426e+00 1.909038662910461426e+00 1.912106275558471680e+00 1.915252447128295898e+00 1.918362975120544434e+00 1.921383142471313477e+00 2.227995157241821289e+00 2.227995395660400391e+00 2.227995395660400391e+00 2.227995395660400391e+00 2.227995634078979492e+00 2.227995634078979492e+00 2.227995634078979492e+00 2.227995634078979492e+00 2.227995634078979492e+00 2.227995634078979492e+00 2.227995872497558594e+00 2.227995872497558594e+00 2.227995872497558594e+00 2.227995872497558594e+00 2.227995872497558594e+00 2.227995872497558594e+00 2.227996110916137695e+00 2.227996110916137695e+00 2.227996110916137695e+00 2.227996349334716797e+00 2.227996349334716797e+00 2.227996349334716797e+00 2.227996349334716797e+00 2.227996349334716797e+00 2.227996349334716797e+00 2.227996587753295898e+00 2.227996587753295898e+00 2.227996587753295898e+00 2.227996826171875000e+00 2.227996826171875000e+00 2.227996826171875000e+00 2.227996826171875000e+00 2.222280025482177734e+00 2.163030385971069336e+00 2.106858253479003906e+00 2.053529739379882812e+00 2.002834320068359375e+00 1.954581618309020996e+00
1.954683423042297363e+00 2.002938508987426758e+00 2.053637027740478516e+00 2.106968402862548828e+00 2.163143634796142578e+00 2.222396612167358398e+00 2.227993249893188477e+00 2.227993249893188477e+00 2.227993488311767578e+00 2.227993488311767578e+00 2.227993488311767578e+00 2.227993726730346680e+00 2.227993726730346680e+00 2.227993726730346680e+00 2.227993726730346680e+00 2.227993726730346680e+00 2.227993726730346680e+00 2.227993726730346680e+00 2.227993965148925781e+00 2.227993965148925781e+00 2.227993965148925781e+00 2.227993965148925781e+00 2.227993965148925781e+00 2.227993965148925781e+00 2.227994203567504883e+00 2.227994203567504883e+00 2.227994203567504883e+00 2.227994441986083984e+00 2.227994441986083984e+00 2.227994441986083984e+00 2.227994441986083984e+00 2.227994441986083984e+00 2.227994441986083984e+00 2.227994680404663086e+00 2.227994680404663086e+00 2.227994680404663086e+00 2.227994680404663086e+00 1.917718410491943359e+00 1.894608259201049805e+00 1.898524165153503418e+00 1.902093529701232910e+00 1.905477166175842285e+00 1.908589839935302734e+00 1.911547899246215820e+00 1.914265036582946777e+00 1.916845679283142090e+00 2.227995157241821289e+00 2.227995395660400391e+00 2.227995395660400391e+00 2.227995395660400391e+00 2.227995634078979492e+00 2.227995634078979492e+00 2.227995634078979492e+00 2.227995634078979492e+00 2.227995634078979492e+00 2.227995634078979492e+00 2.227995872497558594e+00 2.227995872497558594e+00 2.227995872497558594e+00 2.227995872497558594e+00 2.227995872497558594e+00 2.227995872497558594e+00 2.227996110916137695e+00 2.227996110916137695e+00 2.227996110916137695e+00 2.227996349334716797e+00 2.227996349334716797e+00 2.227996349334716797e+00 2.227996349334716797e+00 2.227996349334716797e+00 2.227996349334716797e+00 2.227996587753295898e+00 2.227996587753295898e+00 2.227996587753295898e+00 2.227996826171875000e+00 2.227996826171875000e+00 2.227996826171875000e+00 2.227996826171875000e+00 2.222280263900756836e+00 2.163030624389648438e+00 2.106858491897583008e+00 2.053529739379882812e+00 2.002834320068359375e+00 1.954581618309020996e+00
1.954679727554321289e+00 2.002934932708740234e+00 2.053633213043212891e+00 2.106964349746704102e+00 2.163139581680297852e+00 2.222392082214355469e+00 2.227993249893188477e+00 2.227993249893188477e+00 2.227993249893188477e+00 2.227993488311767578e+00 2.227993488311767578e+00 2.227993488311767578e+00 2.227993726730346680e+00 2.227993726730346680e+00 2.227993726730346680e+00 2.227993726730346680e+00 2.227993726730346680e+00 2.227993726730346680e+00 2.227993965148925781e+00 2.227993965148925781e+00 2.227993965148925781e+00 2.227993965148925781e+00 2.227993965148925781e+00 2.227993965148925781e+00 2.227994203567504883e+00 2.227994203567504883e+00 2.227994203567504883e+00 2.227994441986083984e+00 2.227994441986083984e+00 2.227994441986083984e+00 2.227994441986083984e+00 2.227994441986083984e+00 2.227994441986083984e+00 2.227994680404663086e+00 2.227994680404663086e+00 2.227994680404663086e+00 2.227994680404663086e+00 1.930904269218444824e+00 1.889332652091979980e+00 1.893734455108642578e+00 1.897430896759033203e+00 1.900991439819335938e+00 1.904085993766784668e+00 1.906851172447204590e+00 1.909202933311462402e+00 1.911279082298278809e+00 2.227995157241821289e+00 2.227995157241821289e+00 2.227995395660400391e+00 2.227995395660400391e+00 2.227995395660400391e+00 2.227995634078979492e+00 2.227995634078979492e+00 2.227995634078979492e+00 2.227995634078979492e+00 2.227995634078979492e+00 2.227995634078979492e+00 2.227995872497558594e+00 2.227995872497558594e+00 2.227995872497558594e+00 2.227995872497558594e+00 2.227995872497558594e+00 2.227995872497558594e+00 2.227996110916137695e+00 2.227996110916137695e+00 2.227996110916137695e+00 2.227996349334716797e+00 2.227996349334716797e+00 2.227996349334716797e+00 2.227996349334716797e+00 2.227996349334716797e+00 2.227996349334716797e+00 2.227996587753295898e+00 2.227996587753295898e+00 2.227996587753295898e+00 2.227996826171875000e+00 2.227996826171875000e+00 2.227996826171875000e+00 2.222280263900756836e+00 2.163030624389648438e+00 2.106858491897583008e+00 2.053529977798461914e+00 2.002834320068359375e+00 1.954581618309020996e+00
1.954676389694213867e+00 2.002931356430053711e+00 2.053629398345947266e+00 2.106960535049438477e+00 2.163135290145874023e+00 2.222387552261352539e+00 2.227993249893188477e+00 2.227993249893188477e+00 2.227993249893188477e+00 2.227993488311767578e+00 2.227993488311767578e+00 2.227993488311767578e+00 2.227993726730346680e+00 2.227993726730346680e+00 2.227993726730346680e+00 2.227993726730346680e+00 2.227993726730346680e+00 2.227993726730346680e+00 2.227993965148925781e+00 2.227993965148925781e+00 2.227993965148925781e+00 2.227993965148925781e+00 2.227993965148925781e+00 2.227993965148925781e+00 2.227993965148925781e+00 2.227994203567504883e+00 2.227994203567504883e+00 2.227994203567504883e+00 2.227994441986083984e+00 2.227994441986083984e+00 2.227994441986083984e+00 2.227994441986083984e+00 2.227994441986083984e+00 2.227994441986083984e+00 2.227994680404663086e+00 2.227994680404663086e+00 2.227994680404663086e+00 1.955349206924438477e+00 1.884047746658325195e+00 1.887602806091308594e+00 1.891503095626831055e+00 1.895150542259216309e+00 1.898257732391357422e+00 1.900900483131408691e+00 1.903085708618164062e+00 1.904953360557556152e+00 2.227995157241821289e+00 2.227995157241821289e+00 2.227995395660400391e+00 2.227995395660400391e+00 2.227995395660400391e+00 2.227995634078979492e+00 2.227995634078979492e+00 2.227995634078979492e+00 2.227995634078979492e+00 2.227995634078979492e+00 2.227995634078979492e+00 2.227995872497558594e+00 2.227995872497558594e+00 2.227995872497558594e+00 2.227995872497558594e+00 2.227995872497558594e+00 2.227995872497558594e+00 2.227996110916137695e+00 2.227996110916137695e+00 2.227996110916137695e+00 2.227996349334716797e+00 2.227996349334716797e+00 2.227996349334716797e+00 2.227996349334716797e+00 2.227996349334716797e+00 2.227996349334716797e+00 2.227996587753295898e+00 2.227996587753295898e+00 2.227996587753295898e+00 2.227996826171875000e+00 2.227996826171875000e+00 2.227996826171875000e+00 2.222280263900756836e+00 2.163030624389648438e+00 2.106858491897583008e+00 2.053529977798461914e+00 2.002834320068359375e+00 1.954581618309020996e+00
1.954672932624816895e+00 2.002927780151367188e+00 2.053625583648681641e+00 2.106956481933593750e+00 2.163130998611450195e+00 2.222383260726928711e+00 2.227993249893188477e+00 2.227993249893188477e+00 2.227993249893188477e+00 2.227993249893188477e+00 2.227993488311767578e+00 2.227993488311767578e+00 2.227993488311767578e+00 2.227993726730346680e+00 2.227993726730346680e+00 2.227993726730346680e+00 2.227993726730346680e+00 2.227993726730346680e+00 2.227993726730346680e+00 2.227993965148925781e+00 2.227993965148925781e+00 2.227993965148925781e+00 2.227993965148925781e+00 2.227993965148925781e+00 2.227993965148925781e+00 2.227994203567504883e+00 2.227994203567504883e+00 2.227994203567504883e+00 2.227994441986083984e+00 2.227994441986083984e+00 2.227994441986083984e+00 2.227994441986083984e+00 2.227994441986083984e+00 2.227994441986083984e+00 2.227994680404663086e+00 2.227994680404663086e+00 2.227994680404663086e+00 2.227994680404663086e+00 1.887853860855102539e+00 1.880145311355590820e+00 1.884250998497009277e+00 1.887912869453430176e+00 1.891105532646179199e+00 1.893661975860595703e+00 1.895544052124023438e+00 2.227995157241821289e+00 2.227995157241821289e+00 2.227995157241821289e+00 2.227995395660400391e+00 2.227995395660400391e+00 2.227995395660400391e+00 2.227995395660400391e+00 2.227995634078979492e+00 2.227995634078979492e+00 2.227995634078979492e+00 2.227995634078979492e+00 2.227995634078979492e+00 2.227995634078979492e+00 2.227995872497558594e+00 2.227995872497558594e+00 2.227995872497558594e+00 2.227995872497558594e+00 2.227995872497558594e+00 2.227995872497558594e+00 2.227996110916137695e+00 2.227996110916137695e+00 2.227996110916137695e+00 2.227996349334716797e+00 2.227996349334716797e+00 2.227996349334716797e+00 2.227996349334716797e+00 2.227996349334716797e+00 2.227996349334716797e+00 2.227996587753295898e+00 2.227996587753295898e+00 2.227996587753295898e+00 2.227996826171875000e+00 2.227996826171875000e+00 2.222280263900756836e+00 2.163030862808227539e+00 2.106858491897583008e+00 2.053529977798461914e+00 2.002834320068359375e+00 1.954581618309020996e+00
1.954669475555419922e+00 2.002924203872680664e+00 2.053621768951416016e+00 2.106952428817749023e+00 2.163126945495605469e+00 2.222378730773925781e+00 2.227993249893188477e+00 2.227993249893188477e+00 2.227993249893188477e+00 2.227993249893188477e+00 2.227993488311767578e+00 2.227993488311767578e+00 2.227993488311767578e+00 2.227993726730346680e+00 2.227993726730346680e+00 2.227993726730346680e+00 2.227993726730346680e+00 2.227993726730346680e+00 2.227993726730346680e+00 2.227993965148925781e+00 2.227993965148925781e+00 2.227993965148925781e+00 2.227993965148925781e+00 2.227993965148925781e+00 2.227993965148925781e+00 2.227994203567504883e+00 2.227994203567504883e+00 2.227994203567504883e+00 2.227994203567504883e+00 2.227994441986083984e+00 2.227994441986083984e+00 2.227994441986083984e+00 2.227994441986083984e+00 2.227994441986083984e+00 2.227994441986083984e+00 2.227994680404663086e+00 2.227994680404663086e+00 2.227994680404663086e+00 1.890919208526611328e+00 1.871403932571411133e+00 1.875557184219360352e+00 1.879160284996032715e+00 1.882452964782714844e+00 1.884935736656188965e+00 1.886972784996032715e+00 2.227995157241821289e+00 2.227995157241821289e+00 2.227995157241821289e+00 2.227995157241821289e+00 2.227995395660400391e+00 2.227995395660400391e+00 2.227995395660400391e+00 2.227995634078979492e+00 2.227995634078979492e+00 2.227995634078979492e+00 2.227995634078979492e+00 2.227995634078979492e+00 2.227995634078979492e+00 2.227995872497558594e+00 2.227995872497558594e+00 2.227995872497558594e+00 2.227995872497558594e+00 2.227995872497558594e+00 2.227995872497558594e+00 2.227996110916137695e+00 2.227996110916137695e+00 2.227996110916137695e+00 2.227996349334716797e+00 2.227996349334716797e+00 2.227996349334716797e+00 2.227996349334716797e+00 2.227996349334716797e+00 2.227996349334716797e+00 2.227996587753295898e+00 2.227996587753295898e+00 2.227996587753295898e+00 2.227996826171875000e+00 2.227996826171875000e+00 2.222280263900756836e+00 2.163030862808227539e+00 2.106858730316162109e+00 2.053529977798461914e+00 2.002834558486938477e+00 1.954581618309020996e+00
1.954666137695312500e+00 2.002920627593994141e+00 2.053617954254150391e+00 2.106948375701904297e+00 2.163122653961181641e+00 2.222374200820922852e+00 2.227993249893188477e+00 2.227993249893188477e+00 2.227993249893188477e+00 2.227993249893188477e+00 2.227993249893188477e+00 2.227993488311767578e+00 2.227993488311767578e+00 2.227993488311767578e+00 2.227993726730346680e+00 2.227993726730346680e+00 2.227993726730346680e+00 2.227993726730346680e+00 2.227993726730346680e+00 2.227993726730346680e+00 2.227993965148925781e+00 2.227993965148925781e+00 2.227993965148925781e+00 2.227993965148925781e+00 2.227993965148925781e+00 2.227993965148925781e+00 2.227994203567504883e+00 2.227994203567504883e+00 2.227994203567504883e+00 2.227994441986083984e+00 2.227994441986083984e+00 2.227994441986083984e+00 2.227994441986083984e+00 2.227994441986083984e+00 2.227994441986083984e+00 2.227994680404663086e+00 2.227994680404663086e+00 2.227994680404663086e+00 1.893480896949768066e+00 1.861187934875488281e+00 1.865284800529479980e+00 1.868790149688720703e+00 1.872023582458496094e+00 1.874539613723754883e+00 1.876616716384887695e+00 2.227995157241821289e+00 2.227995157241821289e+00 2.227995157241821289e+00 2.227995157241821289e+00 2.227995395660400391e+00 2.227995395660400391e+00 2.227995395660400391e+00 2.227995634078979492e+00 2.227995634078979492e+00 2.227995634078979492e+00 2.227995634078979492e+00 2.227995634078979492e+00 2.227995634078979492e+00 2.227995872497558594e+00 2.227995872497558594e+00 2.227995872497558594e+00 2.227995872497558594e+00 2.227995872497558594e+00 2.227995872497558594e+00 2.227995872497558594e+00 2.227996110916137695e+00 2.227996110916137695e+00 2.227996110916137695e+00 2.227996349334716797e+00 2.227996349334716797e+00 2.227996349334716797e+00 2.227996349334716797e+00 2.227996349334716797e+00 2.227996349334716797e+00 2.227996587753295898e+00 2.227996587753295898e+00 2.227996587753295898e+00 2.227996826171875000e+00 2.222280263900756836e+00 2.163030862808227539e+00 2.106858730316162109e+00 2.053529977798461914e+00 2.002834558486938477e+00 1.954581856727600098e+00
1.954662680625915527e+00 2.002916812896728516e+00 2.053614139556884766e+00 2.106944561004638672e+00 2.163118362426757812e+00 2.222369909286499023e+00 2.227993249893188477e+00 2.227993249893188477e+00 2.227993249893188477e+00 2.227993249893188477e+00 2.227993249893188477e+00 2.227993488311767578e+00 2.227993488311767578e+00 2.227993488311767578e+00 2.227993726730346680e+00 2.227993726730346680e+00 2.227993726730346680e+00 2.227993726730346680e+00 2.227993726730346680e+00 2.227993726730346680e+00 2.227993965148925781e+00 2.227993965148925781e+00 2.227993965148925781e+00 2.227993965148925781e+00 2.227993965148925781e+00 2.227993965148925781e+00 2.227994203567504883e+00 2.227994203567504883e+00 2.227994203567504883e+00 2.227994441986083984e+00 2.227994441986083984e+00 2.227994441986083984e+00 2.227994441986083984e+00 2.227994441986083984e+00 2.227994441986083984e+00 2.227994680404663086e+00 2.227994680404663086e+00 2.227994680404663086e+00 1.896544456481933594e+00 1.849177360534667969e+00 1.852524518966674805e+00 1.855766773223876953e+00 1.858910918235778809e+00 1.861688852310180664e+00 1.864151716232299805e+00 2.227995157241821289e+00 2.227995157241821289e+00 2.227995157241821289e+00 2.227995157241821289e+00 2.227995157241821289e+00 2.227995395660400391e+00 2.227995395660400391e+00 2.227995395660400391e+00 2.227995634078979492e+00 2.227995634078979492e+00 2.227995634078979492e+00 2.227995634078979492e+00 2.227995634078979492e+00 2.227995634078979492e+00 2.227995872497558594e+00 2.227995872497558594e+00 2.227995872497558594e+00 2.227995872497558594e+00 2.227995872497558594e+00 2.227995872497558594e+00 2.227996110916137695e+00 2.227996110916137695e+00 2.227996110916137695e+00 2.227996349334716797e+00 2.227996349334716797e+00 2.227996349334716797e+00 2.227996349334716797e+00 2.227996349334716797e+00 2.227996349334716797e+00 2.227996587753295898e+00 2.227996587753295898e+00 2.227996587753295898e+00 2.227996826171875000e+00 2.222280502319335938e+00 2.163030862808227539e+00 2.106858730316162109e+00 2.053529977798461914e+00 2.002834558486938477e+00 1.954581856727600098e+00
1.954659342765808105e+00 2.002913236618041992e+00 2.053610324859619141e+00 2.106940269470214844e+00 2.163114070892333984e+00 2.222365379333496094e+00 2.227993249893188477e+00 2.227993249893188477e+00 2.227993249893188477e+00 2.227993249893188477e+00 2.227993249893188477e+00 2.227993249893188477e+00 2.227993488311767578e+00 2.227993488311767578e+00 2.227993488311767578e+00 2.227993726730346680e+00 2.227993726730346680e+00 2.227993726730346680e+00 2.227993726730346680e+00 2.227993726730346680e+00 2.227993726730346680e+00 2.227993965148925781e+00 2.227993965148925781e+00 2.227993965148925781e+00 2.227993965148925781e+00 2.227993965148925781e+00 2.227993965148925781e+00 2.227994203567504883e+00 2.227994203567504883e+00 2.227994203567504883e+00 2.227994441986083984e+00 2.227994441986083984e+00 2.227994441986083984e+00 2.227994441986083984e+00 2.227994441986083984e+00 2.227994680404663086e+00 1.837618112564086914e+00 1.837739229202270508e+00 1.838446259498596191e+00 1.835267663002014160e+00 1.837304592132568359e+00 1.839876770973205566e+00 1.842536926269531250e+00 1.845666766166687012e+00 1.848667979240417480e+00 1.852302193641662598e+00 1.859503865242004395e+00 1.863658666610717773e+00 2.227995157241821289e+00 2.227995157241821289e+00 2.227995395660400391e+00 2.227995395660400391e+00 2.227995395660400391e+00 2.227995634078979492e+00 2.227995634078979492e+00 2.227995634078979492e+00 2.227995634078979492e+00 2.227995634078979492e+00 2.227995634078979492e+00 2.227995872497558594e+00 2.227995872497558594e+00 2.227995872497558594e+00 2.227995872497558594e+00 2.227995872497558594e+00 2.227995872497558594e+00 2.227996110916137695e+00 2.227996110916137695e+00 2.227996110916137695e+00 2.227996110916137695e+00 2.227996349334716797e+00 2.227996349334716797e+00 2.227996349334716797e+00 2.227996349334716797e+00 2.227996349334716797e+00 2.227996349334716797e+00 2.227996587753295898e+00 2.227996587753295898e+00 2.227996587753295898e+00 2.222280502319335938e+00 2.163030862808227539e+00 2.106858730316162109e+00 2.053530216217041016e+00 2.002834558486938477e+00 1.954581856727600098e+00
1.954655647277832031e+00 2.002909660339355469e+00 2.053606510162353516e+00 2.106936454772949219e+00 2.163110017776489258e+00 2.222360849380493164e+00 2.227993249893188477e+00 2.227993249893188477e+00 2.227993249893188477e+00 2.227993249893188477e+00 2.227993249893188477e+00 2.227993249893188477e+00 2.227993488311767578e+00 2.227993488311767578e+00 2.227993488311767578e+00 2.227993726730346680e+00 2.227993726730346680e+00 2.227993726730346680e+00 2.227993726730346680e+00 2.227993726730346680e+00 2.227993726730346680e+00 2.227993965148925781e+00 2.227993965148925781e+00 2.227993965148925781e+00 2.227993965148925781e+00 2.227993965148925781e+00 2.227993965148925781e+00 2.227994203567504883e+00 2.227994203567504883e+00 2.227994203567504883e+00 2.227994441986083984e+00 2.227994441986083984e+00 2.227994441986083984e+00 2.227994441986083984e+00 2.227994441986083984e+00 2.227994441986083984e+00 1.810954093933105469e+00 1.812564492225646973e+00 1.814336895942687988e+00 1.816267013549804688e+00 1.818253278732299805e+00 1.820497393608093262e+00 1.823280692100524902e+00 1.826072454452514648e+00 1.829257845878601074e+00 1.832967638969421387e+00 1.836691498756408691e+00 1.840347170829772949e+00 1.844430565834045410e+00 2.227995157241821289e+00 2.227995157241821289e+00 2.227995395660400391e+00 2.227995395660400391e+00 2.227995395660400391e+00 2.227995634078979492e+00 2.227995634078979492e+00 2.227995634078979492e+00 2.227995634078979492e+00 2.227995634078979492e+00 2.227995634078979492e+00 2.227995872497558594e+00 2.227995872497558594e+00 2.227995872497558594e+00 2.227995872497558594e+00 2.227995872497558594e+00 2.227995872497558594e+00 2.227996110916137695e+00 2.227996110916137695e+00 2.227996110916137695e+00 2.227996349334716797e+00 2.227996349334716797e+00 2.227996349334716797e+00 2.227996349334716797e+00 2.227996349334716797e+00 2.227996349334716797e+00 2.227996587753295898e+00 2.227996587753295898e+00 2.227996587753295898e+00 2.222280502319335938e+00 2.163030862808227539e+00 2.106858730316162109e+00 2.053530216217041016e+00 2.002834558486938477e+00 1.954581856727600098e+00
1.954652190208435059e+00 2.002906084060668945e+00 2.053602695465087891e+00 2.106932401657104492e+00 2.163105726242065430e+00 2.222356319427490234e+00 2.227993011474609375e+00 2.227993249893188477e+00 2.227993249893188477e+00 2.227993249893188477e+00 2.227993249893188477e+00 2.227993249893188477e+00 2.227993249893188477e+00 2.227993488311767578e+00 2.227993488311767578e+00 2.227993488311767578e+00 2.227993726730346680e+00 2.227993726730346680e+00 2.227993726730346680e+00 2.227993726730346680e+00 2.227993726730346680e+00 2.227993726730346680e+00 2.227993965148925781e+00 2.227993965148925781e+00 2.227993965148925781e+00 2.227993965148925781e+00 2.227993965148925781e+00 2.227993965148925781e+00 2.227994203567504883e+00 2.227994203567504883e+00 2.227994441986083984e+00 2.227994441986083984e+00 2.227994441986083984e+00 2.227994441986083984e+00 2.227994441986083984e+00 2.227994441986083984e+00 1.799133539199829102e+00 1.800669550895690918e+00 1.802765011787414551e+00 1.805179595947265625e+00 1.807287812232971191e+00 1.809560060501098633e+00 1.812377572059631348e+00 1.815216779708862305e+00 1.818317770957946777e+00 1.821974277496337891e+00 1.825645923614501953e+00 1.829021334648132324e+00 1.832944273948669434e+00 2.227995157241821289e+00 2.227995157241821289e+00 2.227995395660400391e+00 2.227995395660400391e+00 2.227995395660400391e+00 2.227995634078979492e+00 2.227995634078979492e+00 2.227995634078979492e+00 2.227995634078979492e+00 2.227995634078979492e+00 2.227995634078979492e+00 2.227995872497558594e+00 2.227995872497558594e+00 2.227995872497558594e+00 2.227995872497558594e+00 2.227995872497558594e+00 2.227995872497558594e+00 2.227996110916137695e+00 2.227996110916137695e+00 2.227996110916137695e+00 2.227996349334716797e+00 2.227996349334716797e+00 2.227996349334716797e+00 2.227996349334716797e+00 2.227996349334716797e+00 2.227996349334716797e+00 2.227996587753295898e+00 2.227996587753295898e+00 2.227996587753295898e+00 2.222280502319335938e+00 2.163030862808227539e+00 2.106858730316162109e+00 2.053530216217041016e+00 2.002834558486938477e+00 1.954581856727600098e+00
1.954648852348327637e+00 2.002902269363403320e+00 2.053598880767822266e+00 2.106928348541259766e+00 2.163101434707641602e+00 2.222352027893066406e+00 2.227993011474609375e+00 2.227993249893188477e+00 2.227993249893188477e+00 2.227993249893188477e+00 2.227993249893188477e+00 2.227993249893188477e+00 2.227993249893188477e+00 2.227993488311767578e+00 2.227993488311767578e+00 2.227993488311767578e+00 2.227993726730346680e+00 2.227993726730346680e+00 2.227993726730346680e+00 2.227993726730346680e+00 2.227993726730346680e+00 2.227993726730346680e+00 2.227993965148925781e+00 2.227993965148925781e+00 2.227993965148925781e+00 2.227993965148925781e+00 2.227993965148925781e+00 2.227993965148925781e+00 2.227994203567504883e+00 2.227994203567504883e+00 2.227994441986083984e+00 2.227994441986083984e+00 2.227994441986083984e+00 2.227994441986083984e+00 2.227994441986083984e+00 2.227994441986083984e+00 1.794946193695068359e+00 1.794775843620300293e+00 1.802862644195556641e+00 1.799584031105041504e+00 1.801776289939880371e+00 1.804091095924377441e+00 1.806960225105285645e+00 1.809835433959960938e+00 1.812919259071350098e+00 1.816575884819030762e+00 1.820247054100036621e+00 1.823897361755371094e+00 1.827806591987609863e+00 2.227995157241821289e+00 2.227995157241821289e+00 2.227995157241821289e+00 2.227995395660400391e+00 2.227995395660400391e+00 2.227995395660400391e+00 2.227995634078979492e+00 2.227995634078979492e+00 2.227995634078979492e+00 2.227995634078979492e+00 2.227995634078979492e+00 2.227995634078979492e+00 2.227995872497558594e+00 2.227995872497558594e+00 2.227995872497558594e+00 2.227995872497558594e+00 2.227995872497558594e+00 2.227995872497558594e+00 2.227996110916137695e+00 2.227996110916137695e+00 2.227996110916137695e+00 2.227996349334716797e+00 2.227996349334716797e+00 2.227996349334716797e+00 2.227996349334716797e+00 2.227996349334716797e+00 2.227996349334716797e+00 2.227996587753295898e+00 2.227996587753295898e+00 2.222280502319335938e+00 2.163031101226806641e+00 2.106858968734741211e+00 2.053530216217041016e+00 2.002834558486938477e+00 1.954581856727600098e+00
1.954645395278930664e+00 2.002898693084716797e+00 2.053595066070556641e+00 2.106924295425415039e+00 2.163097381591796875e+00 2.222347497940063477e+00 2.227993011474609375e+00 2.227993249893188477e+00 2.227993249893188477e+00 2.227993249893188477e+00 2.227993249893188477e+00 2.227993249893188477e+00 2.227993249893188477e+00 2.227993249893188477e+00 2.227993488311767578e+00 2.227993488311767578e+00 2.227993488311767578e+00 2.227993726730346680e+00 2.227993726730346680e+00 2.227993726730346680e+00 2.227993726730346680e+00 2.227993726730346680e+00 2.227993726730346680e+00 2.227993965148925781e+00 2.227993965148925781e+00 2.227993965148925781e+00 2.227993965148925781e+00 2.227993965148925781e+00 2.227994203567504883e+00 2.227994203567504883e+00 2.227994203567504883e+00 2.227994441986083984e+00 2.227994441986083984e+00 2.227994441986083984e+00 2.227994441986083984e+00 2.227994441986083984e+00 1.794328570365905762e+00 1.793838143348693848e+00 1.802609205245971680e+00 1.798551797866821289e+00 1.800820112228393555e+00 1.803229451179504395e+00 1.806221723556518555e+00 1.809224247932434082e+00 1.812436580657958984e+00 1.816247105598449707e+00 1.820073723793029785e+00 1.823837876319885254e+00 1.827847123146057129e+00 2.227995157241821289e+00 2.227995157241821289e+00 2.227995157241821289e+00 2.227995395660400391e+00 2.227995395660400391e+00 2.227995395660400391e+00 2.227995634078979492e+00 2.227995634078979492e+00 2.227995634078979492e+00 2.227995634078979492e+00 2.227995634078979492e+00 2.227995634078979492e+00 2.227995872497558594e+00 2.227995872497558594e+00 2.227995872497558594e+00 2.227995872497558594e+00 2.227995872497558594e+00 2.227995872497558594e+00 2.227996110916137695e+00 2.227996110916137695e+00 2.227996110916137695e+00 2.227996349334716797e+00 2.227996349334716797e+00 2.227996349334716797e+00 2.227996349334716797e+00 2.227996349334716797e+00 2.227996349334716797e+00 2.227996587753295898e+00 2.227996587753295898e+00 2.222280502319335938e+00 2.163031101226806641e+00 2.106858968734741211e+00 2.053530216217041016e+00 2.002834796905517578e+00 1.954582095146179199e+00
1.954641938209533691e+00 2.002895116806030273e+00 2.053591251373291016e+00 2.106920480728149414e+00 2.163092851638793945e+00 2.222342967987060547e+00 2.227993011474609375e+00 2.227993011474609375e+00 2.227993249893188477e+00 2.227993249893188477e+00 2.227993249893188477e+00 2.227993249893188477e+00 2.227993249893188477e+00 2.227993249893188477e+00 2.227993488311767578e+00 2.227993488311767578e+00 2.227993488311767578e+00 2.227993726730346680e+00 2.227993726730346680e+00 2.227993726730346680e+00 2.227993726730346680e+00 2.227993726730346680e+00 2.227993726730346680e+00 2.227993965148925781e+00 2.227993965148925781e+00 2.227993965148925781e+00 2.227993965148925781e+00 2.227993965148925781e+00 2.227994203567504883e+00 2.227994203567504883e+00 2.227994203567504883e+00 2.227994441986083984e+00 2.227994441986083984e+00 2.227994441986083984e+00 2.227994441986083984e+00 2.227994441986083984e+00 1.796584367752075195e+00 1.797679185867309570e+00 1.802676081657409668e+00 1.803113222122192383e+00 1.805432319641113281e+00 1.807914972305297852e+00 1.810992598533630371e+00 1.814083337783813477e+00 1.817455768585205078e+00 1.821443557739257812e+00 1.825447559356689453e+00 1.828617811203002930e+00 1.833020567893981934e+00 2.227995157241821289e+00 2.227995157241821289e+00 2.227995157241821289e+00 2.227995157241821289e+00 2.227995395660400391e+00 2.227995395660400391e+00 2.227995395660400391e+00 2.227995634078979492e+00 2.227995634078979492e+00 2.227995634078979492e+00 2.227995634078979492e+00 2.227995634078979492e+00 2.227995634078979492e+00 2.227995872497558594e+00 2.227995872497558594e+00 2.227995872497558594e+00 2.227995872497558594e+00 2.227995872497558594e+00 2.227995872497558594e+00 2.227996110916137695e+00 2.227996110916137695e+00 2.227996110916137695e+00 2.227996349334716797e+00 2.227996349334716797e+00 2.227996349334716797e+00 2.227996349334716797e+00 2.227996349334716797e+00 2.227996349334716797e+00 2.227996587753295898e+00 2.222280502319335938e+00 2.163031101226806641e+00 2.106858968734741211e+00 2.053530216217041016e+00 2.002834796905517578e+00 1.954582095146179199e+00
1.954638600349426270e+00 2.002891540527343750e+00 2.053587436676025391e+00 2.106916427612304688e+00 2.163088798522949219e+00 2.222338676452636719e+00 2.227993011474609375e+00 2.227993011474609375e+00 2.227993249893188477e+00 2.227993249893188477e+00 2.227993249893188477e+00 2.227993249893188477e+00 2.227993249893188477e+00 2.227993249893188477e+00 2.227993488311767578e+00 2.227993488311767578e+00 2.227993488311767578e+00 2.227993726730346680e+00 2.227993726730346680e+00 2.227993726730346680e+00 2.227993726730346680e+00 2.227993726730346680e+00 2.227993726730346680e+00 2.227993726730346680e+00 2.227993965148925781e+00 2.227993965148925781e+00 2.227993965148925781e+00 2.227993965148925781e+00 2.227993965148925781e+00 2.227994203567504883e+00 2.227994203567504883e+00 2.227994203567504883e+00 2.227994441986083984e+00 2.227994441986083984e+00 2.227994441986083984e+00 2.227994441986083984e+00 1.806968331336975098e+00 1.803649544715881348e+00 1.811638236045837402e+00 1.814126968383789062e+00 1.816431045532226562e+00 1.819110512733459473e+00 1.822328329086303711e+00 1.825557112693786621e+00 1.829237103462219238e+00 1.833850741386413574e+00 1.838612675666809082e+00 1.834030389785766602e+00 1.840918898582458496e+00 2.227995157241821289e+00 2.227995157241821289e+00 2.227995157241821289e+00 2.227995157241821289e+00 2.227995395660400391e+00 2.227995395660400391e+00 2.227995395660400391e+00 2.227995634078979492e+00 2.227995634078979492e+00 2.227995634078979492e+00 2.227995634078979492e+00 2.227995634078979492e+00 2.227995634078979492e+00 2.227995872497558594e+00 2.227995872497558594e+00 2.227995872497558594e+00 2.227995872497558594e+00 2.227995872497558594e+00 2.227995872497558594e+00 2.227996110916137695e+00 2.227996110916137695e+00 2.227996110916137695e+00 2.227996349334716797e+00 2.227996349334716797e+00 2.227996349334716797e+00 2.227996349334716797e+00 2.227996349334716797e+00 2.227996349334716797e+00 2.227996587753295898e+00 2.222280740737915039e+00 2.163031101226806641e+00 2.106858968734741211e+00 2.053530216217041016e+00 2.002834796905517578e+00 1.954582095146179199e+00
1.954634904861450195e+00 2.002887964248657227e+00 2.053583621978759766e+00 2.106912374496459961e+00 2.163084506988525391e+00 2.222333908081054688e+00 2.227993011474609375e+00 2.227993011474609375e+00 2.227993011474609375e+00 2.227993249893188477e+00 2.227993249893188477e+00 2.227993249893188477e+00 2.227993249893188477e+00 2.227993249893188477e+00 2.227993249893188477e+00 2.227993488311767578e+00 2.227993488311767578e+00 2.227993488311767578e+00 2.227993726730346680e+00 2.227993726730346680e+00 2.227993726730346680e+00 2.227993726730346680e+00 2.227993726730346680e+00 2.227993965148925781e+00 2.227993965148925781e+00 2.227993965148925781e+00 2.227993965148925781e+00 2.227993965148925781e+00 2.227993965148925781e+00 2.227994203567504883e+00 2.227994203567504883e+00 2.227994203567504883e+00 2.227994441986083984e+00 2.227994441986083984e+00 2.227994441986083984e+00 2.227994441986083984e+00 1.825426220893859863e+00 1.809828996658325195e+00 1.851641297340393066e+00 1.850086331367492676e+00 1.851220011711120605e+00 1.854763031005859375e+00 1.859544157981872559e+00 2.227994680404663086e+00 2.227994918823242188e+00 1.967320442199707031e+00 1.877822756767272949e+00 1.839888691902160645e+00 2.227995157241821289e+00 2.227995157241821289e+00 2.227995157241821289e+00 2.227995157241821289e+00 2.227995157241821289e+00 2.227995157241821289e+00 2.227995395660400391e+00 2.227995395660400391e+00 2.227995395660400391e+00 2.227995634078979492e+00 2.227995634078979492e+00 2.227995634078979492e+00 2.227995634078979492e+00 2.227995634078979492e+00 2.227995634078979492e+00 2.227995872497558594e+00 2.227995872497558594e+00 2.227995872497558594e+00 2.227995872497558594e+00 2.227995872497558594e+00 2.227995872497558594e+00 2.227996110916137695e+00 2.227996110916137695e+00 2.227996110916137695e+00 2.227996349334716797e+00 2.227996349334716797e+00 2.227996349334716797e+00 2.227996349334716797e+00 2.227996349334716797e+00 2.227996349334716797e+00 2.222280740737915039e+00 2.163031101226806641e+00 2.106858968734741211e+00 2.053530454635620117e+00 2.002834796905517578e+00 1.954582095146179199e+00
1.954631447792053223e+00 2.002884387969970703e+00 2.053579807281494141e+00 2.106908321380615234e+00 2.163080453872680664e+00 2.222329616546630859e+00 2.227993011474609375e+00 2.227993011474609375e+00 2.227993011474609375e+00 2.227993249893188477e+00 2.227993249893188477e+00 2.227993249893188477e+00 2.227993249893188477e+00 2.227993249893188477e+00 2.227993249893188477e+00 2.227993488311767578e+00 2.227993488311767578e+00 2.227993488311767578e+00 2.227993726730346680e+00 2.227993726730346680e+00 2.227993726730346680e+00 2.227993726730346680e+00 2.227993726730346680e+00 2.227993726730346680e+00 2.227993965148925781e+00 2.227993965148925781e+00 2.227993965148925781e+00 2.227993965148925781e+00 2.227993965148925781e+00 2.227993965148925781e+00 2.227994203567504883e+00 2.227994203567504883e+00 2.227994203567504883e+00 2.227994441986083984e+00 2.227994441986083984e+00 2.227994441986083984e+00 1.844765305519104004e+00 1.816304683685302734e+00 2.227994441986083984e+00 2.227994680404663086e+00 2.227994680404663086e+00 2.227994680404663086e+00 2.227994680404663086e+00 2.227994680404663086e+00 2.227994680404663086e+00 1.917731046676635742e+00 1.870742797851562500e+00 1.846135497093200684e+00 2.227995157241821289e+00 2.227995157241821289e+00 2.227995157241821289e+00 2.227995157241821289e+00 2.227995157241821289e+00 2.227995157241821289e+00 2.227995395660400391e+00 2.227995395660400391e+00 2.227995395660400391e+00 2.227995634078979492e+00 2.227995634078979492e+00 2.227995634078979492e+00 2.227995634078979492e+00 2.227995634078979492e+00 2.227995634078979492e+00 2.227995872497558594e+00 2.227995872497558594e+00 2.227995872497558594e+00 2.227995872497558594e+00 2.227995872497558594e+00 2.227995872497558594e+00 2.227996110916137695e+00 2.227996110916137695e+00 2.227996110916137695e+00 2.227996349334716797e+00 2.227996349334716797e+00 2.227996349334716797e+00 2.227996349334716797e+00 2.227996349334716797e+00 2.227996349334716797e+00 2.222280740737915039e+00 2.163031101226806641e+00 2.106858968734741211e+00 2.053530454635620117e+00 2.002834796905517578e+00 1.954582095146179199e+00
1.954628109931945801e+00 2.002880573272705078e+00 2.053575992584228516e+00 2.106904506683349609e+00 2.163076162338256836e+00 2.222325086593627930e+00 2.227992773056030273e+00 2.227993011474609375e+00 2.227993011474609375e+00 2.227993011474609375e+00 2.227993249893188477e+00 2.227993249893188477e+00 2.227993249893188477e+00 2.227993249893188477e+00 2.227993249893188477e+00 2.227993249893188477e+00 2.227993488311767578e+00 2.227993488311767578e+00 2.227993488311767578e+00 2.227993726730346680e+00 2.227993726730346680e+00 2.227993726730346680e+00 2.227993726730346680e+00 2.227993726730346680e+00 2.227993965148925781e+00 2.227993965148925781e+00 2.227993965148925781e+00 2.227993965148925781e+00 2.227993965148925781e+00 2.227993965148925781e+00 2.227994203567504883e+00 2.227994203567504883e+00 2.227994203567504883e+00 2.227994441986083984e+00 2.227994441986083984e+00 2.227994441986083984e+00 1.858870148658752441e+00 1.822511792182922363e+00 1.814725399017333984e+00 1.854114055633544922e+00 1.856041073799133301e+00 1.857726812362670898e+00 1.859668850898742676e+00 1.861616849899291992e+00 1.863951206207275391e+00 1.864399075508117676e+00 1.844898104667663574e+00 1.854266643524169922e+00 2.227995157241821289e+00 2.227995157241821289e+00 2.227995157241821289e+00 2.227995157241821289e+00 2.227995157241821289e+00 2.227995157241821289e+00 2.227995395660400391e+00 2.227995395660400391e+00 2.227995395660400391e+00 2.227995634078979492e+00 2.227995634078979492e+00 2.227995634078979492e+00 2.227995634078979492e+00 2.227995634078979492e+00 2.227995634078979492e+00 2.227995634078979492e+00 2.227995872497558594e+00 2.227995872497558594e+00 2.227995872497558594e+00 2.227995872497558594e+00 2.227995872497558594e+00 2.227995872497558594e+00 2.227996110916137695e+00 2.227996110916137695e+00 2.227996110916137695e+00 2.227996349334716797e+00 2.227996349334716797e+00 2.227996349334716797e+00 2.227996349334716797e+00 2.227996349334716797e+00 2.222280979156494141e+00 2.163031101226806641e+00 2.106858968734741211e+00 2.053530454635620117e+00 2.002834796905517578e+00 1.954582095146179199e+00
1.954624652862548828e+00 2.002876996994018555e+00 2.053572416305541992e+00 2.106900215148925781e+00 2.163071870803833008e+00 2.222320795059204102e+00 2.227992773056030273e+00 2.227993011474609375e+00 2.227993011474609375e+00 2.227993011474609375e+00 2.227993249893188477e+00 2.227993249893188477e+00 2.227993249893188477e+00 2.227993249893188477e+00 2.227993249893188477e+00 2.227993249893188477e+00 2.227993488311767578e+00 2.227993488311767578e+00 2.227993488311767578e+00 2.227993726730346680e+00 2.227993726730346680e+00 2.227993726730346680e+00 2.227993726730346680e+00 2.227993726730346680e+00 2.227993726730346680e+00 2.227993965148925781e+00 2.227993965148925781e+00 2.227993965148925781e+00 2.227993965148925781e+00 2.227993965148925781e+00 2.227993965148925781e+00 2.227994203567504883e+00 2.227994203567504883e+00 2.227994203567504883e+00 2.227994441986083984e+00 2.227994441986083984e+00 1.868922472000122070e+00 1.828710794448852539e+00 1.822967410087585449e+00 1.813365101814270020e+00 1.819709777832031250e+00 1.821977376937866211e+00 1.824250578880310059e+00 1.826529502868652344e+00 1.828857064247131348e+00 1.830170392990112305e+00 1.833425879478454590e+00 1.864532232284545898e+00 2.227994918823242188e+00 2.227995157241821289e+00 2.227995157241821289e+00 2.227995157241821289e+00 2.227995157241821289e+00 2.227995157241821289e+00 2.227995157241821289e+00 2.227995395660400391e+00 2.227995395660400391e+00 2.227995395660400391e+00 2.227995634078979492e+00 2.227995634078979492e+00 2.227995634078979492e+00 2.227995634078979492e+00 2.227995634078979492e+00 2.227995634078979492e+00 2.227995872497558594e+00 2.227995872497558594e+00 2.227995872497558594e+00 2.227995872497558594e+00 2.227995872497558594e+00 2.227995872497558594e+00 2.227996110916137695e+00 2.227996110916137695e+00 2.227996110916137695e+00 2.227996349334716797e+00 2.227996349334716797e+00 2.227996349334716797e+00 2.227996349334716797e+00 2.227996349334716797e+00 2.222280979156494141e+00 2.163031339645385742e+00 2.106859207153320312e+00 2.053530454635620117e+00 2.002834796905517578e+00 1.954582095146179199e+00
1.954621195793151855e+00 2.002873420715332031e+00 2.053568363189697266e+00 2.106896400451660156e+00 2.163067817687988281e+00 2.222316265106201172e+00 2.227992773056030273e+00 2.227992773056030273e+00 2.227993011474609375e+00 2.227993011474609375e+00 2.227993011474609375e+00 2.227993249893188477e+00 2.227993249893188477e+00 2.227993249893188477e+00 2.227993249893188477e+00 2.227993249893188477e+00 2.227993249893188477e+00 2.227993488311767578e+00 2.227993488311767578e+00 2.227993726730346680e+00 2.227993726730346680e+00 2.227993726730346680e+00 2.227993726730346680e+00 2.227993726730346680e+00 2.227993726730346680e+00 2.227993965148925781e+00 2.227993965148925781e+00 2.227993965148925781e+00 2.227993965148925781e+00 2.227993965148925781e+00 2.227993965148925781e+00 2.227994203567504883e+00 2.227994203567504883e+00 2.227994203567504883e+00 2.227994441986083984e+00 2.227994441986083984e+00 1.873353600502014160e+00 1.832826375961303711e+00 1.815507888793945312e+00 1.805317163467407227e+00 1.800412654876708984e+00 1.799698948860168457e+00 1.801292419433593750e+00 1.803965210914611816e+00 1.808246970176696777e+00 1.816546320915222168e+00 1.833707213401794434e+00 1.872978687286376953e+00 2.227994918823242188e+00 2.227995157241821289e+00 2.227995157241821289e+00 2.227995157241821289e+00 2.227995157241821289e+00 2.227995157241821289e+00 2.227995157241821289e+00 2.227995395660400391e+00 2.227995395660400391e+00 2.227995395660400391e+00 2.227995634078979492e+00 2.227995634078979492e+00 2.227995634078979492e+00 2.227995634078979492e+00 2.227995634078979492e+00 2.227995634078979492e+00 2.227995872497558594e+00 2.227995872497558594e+00 2.227995872497558594e+00 2.227995872497558594e+00 2.227995872497558594e+00 2.227995872497558594e+00 2.227995872497558594e+00 2.227996110916137695e+00 2.227996110916137695e+00 2.227996110916137695e+00 2.227996349334716797e+00 2.227996349334716797e+00 2.227996349334716797e+00 2.227996349334716797e+00 2.222280979156494141e+00 2.163031339645385742e+00 2.106859207153320312e+00 2.053530454635620117e+00 2.002835035324096680e+00 1.954582333564758301e+00
1.954617857933044434e+00 2.002869844436645508e+00 2.053564548492431641e+00 2.106892347335815430e+00 2.163063287734985352e+00 2.222311735153198242e+00 2.227992773056030273e+00 2.227992773056030273e+00 2.227993011474609375e+00 2.227993011474609375e+00 2.227993011474609375e+00 2.227993249893188477e+00 2.227993249893188477e+00 2.227993249893188477e+00 2.227993249893188477e+00 2.227993249893188477e+00 2.227993488311767578e+00 2.227993488311767578e+00 2.227993488311767578e+00 2.227993726730346680e+00 2.227993726730346680e+00 2.227993726730346680e+00 2.227993726730346680e+00 2.227993726730346680e+00 2.227993726730346680e+00 2.227993965148925781e+00 2.227993965148925781e+00 2.227993965148925781e+00 2.227993965148925781e+00 2.227993965148925781e+00 2.227993965148925781e+00 2.227993965148925781e+00 2.227994203567504883e+00 2.227994203567504883e+00 2.227994203567504883e+00 2.227994441986083984e+00 1.875270009040832520e+00 1.834563136100769043e+00 1.816065073013305664e+00 1.805046081542968750e+00 1.803345561027526855e+00 1.795464992523193359e+00 1.792879581451416016e+00 1.788352489471435547e+00 1.805046081542968750e+00 1.816066622734069824e+00 1.834565758705139160e+00 1.875270605087280273e+00 2.227994918823242188e+00 2.227994918823242188e+00 2.227995157241821289e+00 2.227995157241821289e+00 2.227995157241821289e+00 2.227995157241821289e+00 2.227995157241821289e+00 2.227995157241821289e+00 2.227995395660400391e+00 2.227995395660400391e+00 2.227995395660400391e+00 2.227995634078979492e+00 2.227995634078979492e+00 2.227995634078979492e+00 2.227995634078979492e+00 2.227995634078979492e+00 2.227995634078979492e+00 2.227995872497558594e+00 2.227995872497558594e+00 2.227995872497558594e+00 2.227995872497558594e+00 2.227995872497558594e+00 2.227995872497558594e+00 2.227996110916137695e+00 2.227996110916137695e+00 2.227996110916137695e+00 2.227996349334716797e+00 2.227996349334716797e+00 2.227996349334716797e+00 2.227996349334716797e+00 2.222280979156494141e+00 2.163031339645385742e+00 2.106859207153320312e+00 2.053530454635620117e+00 2.002835035324096680e+00 1.954582333564758301e+00
1.954614400863647461e+00 2.002866268157958984e+00 2.053560972213745117e+00 2.106888294219970703e+00 2.163059234619140625e+00 2.222307443618774414e+00 2.227992773056030273e+00 2.227992773056030273e+00 2.227992773056030273e+00 2.227993011474609375e+00 2.227993011474609375e+00 2.227993011474609375e+00 2.227993249893188477e+00 2.227993249893188477e+00 2.227993249893188477e+00 2.227993249893188477e+00 2.227993249893188477e+00 2.227993488311767578e+00 2.227993488311767578e+00 2.227993488311767578e+00 2.227993726730346680e+00 2.227993726730346680e+00 2.227993726730346680e+00 2.227993726730346680e+00 2.227993726730346680e+00 2.227993726730346680e+00 2.227993965148925781e+00 2.227993965148925781e+00 2.227993965148925781e+00 2.227993965148925781e+00 2.227993965148925781e+00 2.227993965148925781e+00 2.227994203567504883e+00 2.227994203567504883e+00 2.227994203567504883e+00 2.227994441986083984e+00 2.227994441986083984e+00 1.837152957916259766e+00 1.817934036254882812e+00 1.806688547134399414e+00 1.799974322319030762e+00 1.796566724777221680e+00 1.796566843986511230e+00 1.799974441528320312e+00 1.806684136390686035e+00 1.817945957183837891e+00 1.837164521217346191e+00 2.227994918823242188e+00 2.227994918823242188e+00 2.227994918823242188e+00 2.227995157241821289e+00 2.227995157241821289e+00 2.227995157241821289e+00 2.227995157241821289e+00 2.227995157241821289e+00 2.227995157241821289e+00 1.871930122375488281e+00 1.871930122375488281e+00 1.871930122375488281e+00 1.871930360794067383e+00 1.871930360794067383e+00 1.871930360794067383e+00 1.871930360794067383e+00 1.871930360794067383e+00 1.871930241584777832e+00 1.871930241584777832e+00 1.871930241584777832e+00 2.227995872497558594e+00 2.227995872497558594e+00 2.227995872497558594e+00 2.227995872497558594e+00 2.227996110916137695e+00 2.227996110916137695e+00 2.227996110916137695e+00 2.227996349334716797e+00 2.227996349334716797e+00 2.227996349334716797e+00 2.227996349334716797e+00 2.222280979156494141e+00 2.163031339645385742e+00 2.106859207153320312e+00 2.053530454635620117e+00 2.002835035324096680e+00 1.954582333564758301e+00
1.954610824584960938e+00 2.002862453460693359e+00 2.053557157516479492e+00 2.106884241104125977e+00 2.163054943084716797e+00 2.222302913665771484e+00 2.227992773056030273e+00 2.227992773056030273e+00 2.227992773056030273e+00 2.227993011474609375e+00 2.227993011474609375e+00 2.227993011474609375e+00 2.227993249893188477e+00 2.227993249893188477e+00 2.227993249893188477e+00 2.227993249893188477e+00 2.227993249893188477e+00 2.227993488311767578e+00 2.227993488311767578e+00 2.227993488311767578e+00 2.227993726730346680e+00 2.227993726730346680e+00 2.227993726730346680e+00 2.227993726730346680e+00 2.227993726730346680e+00 2.227993726730346680e+00 2.227993965148925781e+00 2.227993965148925781e+00 2.227993965148925781e+00 2.227993965148925781e+00 2.227993965148925781e+00 2.227993965148925781e+00 2.227994203567504883e+00 2.227994203567504883e+00 2.227994203567504883e+00 2.227994203567504883e+00 2.227994441986083984e+00 1.839750051498413086e+00 1.819842457771301270e+00 1.808347702026367188e+00 1.801494240760803223e+00 1.798227071762084961e+00 1.798230767250061035e+00 1.801494359970092773e+00 1.808338880538940430e+00 1.819849848747253418e+00 1.839770793914794922e+00 2.227994680404663086e+00 2.227994918823242188e+00 2.227994918823242188e+00 2.227994918823242188e+00 2.227995157241821289e+00 2.227995157241821289e+00 2.227995157241821289e+00 2.227995157241821289e+00 2.227995157241821289e+00 1.818170428276062012e+00 1.780626893043518066e+00 1.780626893043518066e+00 1.780626893043518066e+00 1.780626893043518066e+00 1.780626893043518066e+00 1.780626893043518066e+00 1.780627131462097168e+00 1.780627131462097168e+00 1.780627131462097168e+00 1.780627131462097168e+00 1.780627131462097168e+00 2.227995872497558594e+00 2.227995872497558594e+00 2.227995872497558594e+00 2.227995872497558594e+00 2.227996110916137695e+00 2.227996110916137695e+00 2.227996110916137695e+00 2.227996349334716797e+00 2.227996349334716797e+00 2.227996349334716797e+00 2.222280979156494141e+00 2.163031339645385742e+00 2.106859207153320312e+00 2.053530693054199219e+00 2.002835035324096680e+00 1.954582333564758301e+00
1.954607367515563965e+00 2.002858877182006836e+00 2.053553104400634766e+00 2.106880426406860352e+00 2.163050651550292969e+00 2.222298383712768555e+00 2.227992773056030273e+00 2.227992773056030273e+00 2.227992773056030273e+00 2.227993011474609375e+00 2.227993011474609375e+00 2.227993011474609375e+00 2.227993249893188477e+00 2.227993249893188477e+00 2.227993249893188477e+00 2.227993249893188477e+00 2.227993249893188477e+00 2.227993249893188477e+00 2.227993488311767578e+00 2.227993488311767578e+00 2.227993488311767578e+00 2.227993726730346680e+00 2.227993726730346680e+00 2.227993726730346680e+00 2.227993726730346680e+00 2.227993726730346680e+00 2.227993726730346680e+00 2.227993965148925781e+00 2.227993965148925781e+00 2.227993965148925781e+00 2.227993965148925781e+00 2.227993965148925781e+00 2.227993965148925781e+00 2.227994203567504883e+00 2.227994203567504883e+00 2.227994203567504883e+00 2.227994441986083984e+00 1.842527270317077637e+00 1.821887612342834473e+00 1.810009717941284180e+00 1.803016781806945801e+00 1.799770951271057129e+00 1.799773216247558594e+00 1.803016781806945801e+00 1.809998869895935059e+00 1.821927189826965332e+00 1.842513203620910645e+00 2.227994680404663086e+00 2.227994918823242188e+00 2.227994918823242188e+00 2.227994918823242188e+00 2.227995157241821289e+00 2.227995157241821289e+00 2.227995157241821289e+00 2.227995157241821289e+00 2.227995157241821289e+00 1.818170428276062012e+00 1.720001339912414551e+00 1.720001459121704102e+00 1.720001459121704102e+00 1.720001459121704102e+00 1.720001459121704102e+00 1.720001459121704102e+00 1.720001459121704102e+00 1.720001697540283203e+00 1.720001697540283203e+00 1.720001697540283203e+00 1.720001697540283203e+00 1.720001697540283203e+00 2.227995872497558594e+00 2.227995872497558594e+00 2.227995872497558594e+00 2.227996110916137695e+00 2.227996110916137695e+00 2.227996110916137695e+00 2.227996349334716797e+00 2.227996349334716797e+00 2.227996349334716797e+00 2.222280979156494141e+00 2.163031339645385742e+00 2.106859207153320312e+00 2.053530693054199219e+00 2.002835035324096680e+00 1.954582333564758301e+00
1.954603910446166992e+00 2.002855300903320312e+00 2.053549528121948242e+00 2.106876373291015625e+00 2.163046598434448242e+00 2.222294092178344727e+00 2.227992773056030273e+00 2.227992773056030273e+00 2.227992773056030273e+00 2.227992773056030273e+00 2.227993011474609375e+00 2.227993011474609375e+00 2.227993249893188477e+00 2.227993249893188477e+00 2.227993249893188477e+00 2.227993249893188477e+00 2.227993249893188477e+00 2.227993249893188477e+00 2.227993488311767578e+00 2.227993488311767578e+00 2.227993488311767578e+00 2.227993726730346680e+00 2.227993726730346680e+00 2.227993726730346680e+00 2.227993726730346680e+00 2.227993726730346680e+00 2.227993726730346680e+00 2.227993965148925781e+00 2.227993965148925781e+00 2.227993965148925781e+00 2.227993965148925781e+00 2.227993965148925781e+00 2.227993965148925781e+00 2.227994203567504883e+00 2.227994203567504883e+00 2.227994203567504883e+00 2.227994441986083984e+00 1.845617890357971191e+00 1.823937296867370605e+00 1.811674952507019043e+00 1.804552435874938965e+00 1.801311373710632324e+00 1.801305770874023438e+00 1.804552793502807617e+00 1.811672925949096680e+00 1.824009418487548828e+00 1.845543742179870605e+00 2.227994680404663086e+00 2.227994680404663086e+00 2.227994918823242188e+00 2.227994918823242188e+00 2.227994918823242188e+00 2.227995157241821289e+00 2.227995157241821289e+00 2.227995157241821289e+00 2.227995157241821289e+00 1.818170666694641113e+00 1.720001459121704102e+00 1.720001459121704102e+00 1.720001459121704102e+00 1.720001459121704102e+00 1.720001459121704102e+00 1.720001459121704102e+00 1.720001697540283203e+00 1.720001697540283203e+00 1.720001697540283203e+00 1.720001697540283203e+00 1.720001697540283203e+00 1.720001697540283203e+00 2.227995872497558594e+00 2.227995872497558594e+00 2.227995872497558594e+00 2.227995872497558594e+00 2.227996110916137695e+00 2.227996110916137695e+00 2.227996110916137695e+00 2.227996349334716797e+00 2.227996349334716797e+00 2.222281217575073242e+00 2.163031578063964844e+00 2.106859207153320312e+00 2.053530693054199219e+00 2.002835035324096680e+00 1.954582333564758301e+00
1.954600572586059570e+00 2.002851724624633789e+00 2.053545713424682617e+00 2.106872320175170898e+00 2.163042306900024414e+00 2.222289323806762695e+00 2.227992773056030273e+00 2.227992773056030273e+00 2.227992773056030273e+00 2.227992773056030273e+00 2.227993011474609375e+00 2.227993011474609375e+00 2.227993011474609375e+00 2.227993249893188477e+00 2.227993249893188477e+00 2.227993249893188477e+00 2.227993249893188477e+00 2.227993249893188477e+00 2.227993249893188477e+00 2.227993488311767578e+00 2.227993488311767578e+00 2.227993488311767578e+00 2.227993726730346680e+00 2.227993726730346680e+00 2.227993726730346680e+00 2.227993726730346680e+00 2.227993726730346680e+00 2.227993726730346680e+00 2.227993965148925781e+00 2.227993965148925781e+00 2.227993965148925781e+00 2.227993965148925781e+00 2.227993965148925781e+00 2.227993965148925781e+00 2.227994203567504883e+00 2.227994203567504883e+00 2.227994203567504883e+00 1.848693490028381348e+00 1.825991511344909668e+00 1.813343286514282227e+00 1.806127071380615234e+00 1.802796363830566406e+00 1.802792906761169434e+00 1.806129455566406250e+00 1.813350081443786621e+00 1.826096296310424805e+00 1.848612427711486816e+00 2.227994680404663086e+00 2.227994680404663086e+00 2.227994918823242188e+00 2.227994918823242188e+00 2.227994918823242188e+00 2.227995157241821289e+00 2.227995157241821289e+00 2.227995157241821289e+00 2.227995157241821289e+00 1.818170666694641113e+00 1.720001459121704102e+00 1.720001459121704102e+00 1.720001459121704102e+00 1.720001459121704102e+00 1.720001459121704102e+00 1.720001697540283203e+00 1.720001697540283203e+00 1.720001697540283203e+00 1.720001697540283203e+00 1.720001697540283203e+00 1.720001697540283203e+00 1.720001816749572754e+00 2.227995872497558594e+00 2.227995872497558594e+00 2.227995872497558594e+00 2.227995872497558594e+00 2.227996110916137695e+00 2.227996110916137695e+00 2.227996110916137695e+00 2.227996349334716797e+00 2.227996349334716797e+00 2.222281217575073242e+00 2.163031578063964844e+00 2.106859445571899414e+00 2.053530931472778320e+00 2.002835273742675781e+00 1.954582571983337402e+00
1.954597115516662598e+00 2.002848148345947266e+00 2.053541660308837891e+00 2.106868267059326172e+00 2.163038253784179688e+00 2.222285032272338867e+00 2.227992773056030273e+00 2.227992773056030273e+00 2.227992773056030273e+00 2.227992773056030273e+00 2.227993011474609375e+00 2.227993011474609375e+00 2.227993011474609375e+00 2.227993249893188477e+00 2.227993249893188477e+00 2.227993249893188477e+00 2.227993249893188477e+00 2.227993249893188477e+00 2.227993249893188477e+00 2.227993488311767578e+00 2.227993488311767578e+00 2.227993488311767578e+00 2.227993726730346680e+00 2.227993726730346680e+00 2.227993726730346680e+00 2.227993726730346680e+00 2.227993726730346680e+00 2.227993726730346680e+00 2.227993965148925781e+00 2.227993965148925781e+00 2.227993965148925781e+00 2.227993965148925781e+00 2.227993965148925781e+00 2.227993965148925781e+00 2.227994203567504883e+00 2.227994203567504883e+00 2.227994203567504883e+00 1.851765275001525879e+00 1.828060626983642578e+00 1.815014600753784180e+00 1.807704567909240723e+00 1.804283976554870605e+00 1.804282426834106445e+00 1.807708621025085449e+00 1.815030336380004883e+00 1.828142523765563965e+00 1.851743459701538086e+00 2.227994680404663086e+00 2.227994680404663086e+00 2.227994918823242188e+00 2.227994918823242188e+00 2.227994918823242188e+00 2.227994918823242188e+00 2.227995157241821289e+00 2.227995157241821289e+00 2.227995157241821289e+00 1.818170547485351562e+00 1.720001459121704102e+00 1.720001459121704102e+00 1.720001459121704102e+00 1.720001459121704102e+00 1.720001697540283203e+00 1.720001697540283203e+00 1.720001697540283203e+00 1.720001697540283203e+00 1.720001697540283203e+00 1.720001697540283203e+00 1.720001816749572754e+00 1.720001816749572754e+00 2.227995872497558594e+00 2.227995872497558594e+00 2.227995872497558594e+00 2.227995872497558594e+00 2.227995872497558594e+00 2.227996110916137695e+00 2.227996110916137695e+00 2.227996110916137695e+00 2.227996349334716797e+00 2.222281217575073242e+00 2.163031578063964844e+00 2.106859445571899414e+00 2.053530931472778320e+00 2.002835273742675781e+00 1.954582571983337402e+00
1.954593658447265625e+00 2.002844333648681641e+00 2.053538084030151367e+00 2.106864213943481445e+00 2.163033723831176758e+00 2.222280502319335938e+00 2.227992773056030273e+00 2.227992773056030273e+00 2.227992773056030273e+00 2.227992773056030273e+00 2.227993011474609375e+00 2.227993011474609375e+00 2.227993011474609375e+00 2.227993011474609375e+00 2.227993249893188477e+00 2.227993249893188477e+00 2.227993249893188477e+00 2.227993249893188477e+00 2.227993249893188477e+00 2.227993249893188477e+00 2.227993488311767578e+00 2.227993488311767578e+00 2.227993488311767578e+00 2.227993726730346680e+00 2.227993726730346680e+00 2.227993726730346680e+00 2.227993726730346680e+00 2.227993726730346680e+00 2.227993726730346680e+00 2.227993965148925781e+00 2.227993965148925781e+00 2.227993965148925781e+00 2.227993965148925781e+00 2.227993965148925781e+00 2.227993965148925781e+00 2.227994203567504883e+00 2.227994203567504883e+00 1.855304718017578125e+00 1.830135941505432129e+00 1.816730976104736328e+00 1.809284806251525879e+00 1.805773854255676270e+00 1.805774450302124023e+00 1.809290885925292969e+00 1.816754937171936035e+00 1.830187320709228516e+00 1.855237245559692383e+00 2.227994680404663086e+00 2.227994680404663086e+00 2.227994680404663086e+00 2.227994918823242188e+00 2.227994918823242188e+00 2.227994918823242188e+00 2.227995157241821289e+00 2.227995157241821289e+00 2.227995157241821289e+00 1.818170547485351562e+00 1.720001459121704102e+00 1.720001459121704102e+00 1.720001459121704102e+00 1.720001697540283203e+00 1.720001697540283203e+00 1.720001697540283203e+00 1.720001697540283203e+00 1.720001697540283203e+00 1.720001697540283203e+00 1.720001816749572754e+00 1.720001816749572754e+00 1.720001816749572754e+00 2.227995872497558594e+00 2.227995872497558594e+00 2.227995872497558594e+00 2.227995872497558594e+00 2.227995872497558594e+00 2.227996110916137695e+00 2.227996110916137695e+00 2.227996110916137695e+00 2.227996349334716797e+00 2.222281217575073242e+00 2.163031578063964844e+00 2.106859445571899414e+00 2.053530931472778320e+00 2.002835273742675781e+00 1.954582571983337402e+00
1.954590320587158203e+00 2.002840757369995117e+00 2.053534269332885742e+00 2.106860160827636719e+00 2.163029670715332031e+00 2.180708169937133789e+00 2.180708169937133789e+00 2.180708408355712891e+00 2.180708408355712891e+00 2.180708885192871094e+00 2.180708885192871094e+00 2.180708885192871094e+00 2.180708885192871094e+00 2.180708885192871094e+00 2.180708885192871094e+00 2.180708885192871094e+00 2.180708885192871094e+00 2.180709123611450195e+00 2.180709123611450195e+00 2.180709123611450195e+00 2.180709123611450195e+00 2.180709123611450195e+00 2.180709123611450195e+00 2.180709123611450195e+00 2.180709362030029297e+00 2.180709362030029297e+00 2.180709362030029297e+00 2.180709362030029297e+00 2.180709600448608398e+00 2.180709600448608398e+00 2.180709600448608398e+00 2.180709600448608398e+00 2.180709600448608398e+00 2.180709600448608398e+00 2.180709600448608398e+00 2.180709838867187500e+00 2.180709838867187500e+00 1.859127998352050781e+00 1.832216143608093262e+00 1.818493604660034180e+00 1.810867905616760254e+00 1.807266235351562500e+00 1.807268977165222168e+00 1.810875773429870605e+00 1.818515419960021973e+00 1.832236886024475098e+00 1.859038591384887695e+00 2.180710315704345703e+00 2.180710315704345703e+00 2.180710315704345703e+00 2.180710315704345703e+00 2.180710315704345703e+00 2.180710315704345703e+00 2.180710554122924805e+00 2.180710554122924805e+00 2.180710554122924805e+00 1.818170785903930664e+00 1.720001459121704102e+00 1.720001459121704102e+00 1.720001697540283203e+00 1.720001697540283203e+00 1.720001697540283203e+00 1.720001697540283203e+00 1.720001697540283203e+00 1.720001697540283203e+00 1.720001816749572754e+00 1.720001816749572754e+00 1.720001816749572754e+00 1.720001816749572754e+00 2.180711030960083008e+00 2.180711030960083008e+00 2.180711269378662109e+00 2.180711269378662109e+00 2.180711269378662109e+00 2.180711269378662109e+00 2.180711269378662109e+00 2.180711269378662109e+00 2.180711269378662109e+00 2.180711269378662109e+00 2.163031816482543945e+00 2.106859445571899414e+00 2.053530931472778320e+00 2.002835273742675781e+00 1.954582571983337402e+00
1.954586625099182129e+00 2.002837181091308594e+00 2.053530216217041016e+00 2.101411342620849609e+00 2.101411342620849609e+00 2.101411581039428711e+00 2.101411581039428711e+00 2.101411581039428711e+00 2.101411581039428711e+00 2.101411819458007812e+00 2.101411819458007812e+00 2.101411819458007812e+00 2.101411819458007812e+00 2.101411819458007812e+00 2.101412057876586914e+00 2.101412296295166016e+00 2.101412296295166016e+00 2.101412296295166016e+00 2.101412296295166016e+00 2.101412296295166016e+00 2.101412534713745117e+00 2.101412534713745117e+00 2.101412534713745117e+00 2.101412534713745117e+00 2.101412534713745117e+00 2.101412534713745117e+00 2.101412534713745117e+00 2.101412534713745117e+00 2.101412773132324219e+00 2.101412773132324219e+00 2.101412773132324219e+00 2.101412773132324219e+00 2.101412773132324219e+00 2.101412773132324219e+00 2.101412773132324219e+00 2.101413011550903320e+00 2.101413011550903320e+00 1.863129973411560059e+00 1.834328174591064453e+00 1.820259809494018555e+00 1.812453627586364746e+00 1.808761119842529297e+00 1.808766007423400879e+00 1.812463402748107910e+00 1.820280313491821289e+00 1.834328293800354004e+00 1.863161802291870117e+00 2.101413488388061523e+00 2.101413488388061523e+00 2.101413488388061523e+00 2.101413488388061523e+00 2.101413488388061523e+00 2.101413488388061523e+00 2.101413726806640625e+00 2.101413726806640625e+00 2.101413726806640625e+00 1.818170785903930664e+00 1.720001459121704102e+00 1.720001697540283203e+00 1.720001697540283203e+00 1.720001697540283203e+00 1.720001697540283203e+00 1.720001697540283203e+00 1.720001697540283203e+00 1.720001816749572754e+00 1.720001816749572754e+00 1.720001816749572754e+00 1.720001816749572754e+00 1.720001816749572754e+00 2.101414203643798828e+00 2.101414203643798828e+00 2.101414442062377930e+00 2.101414442062377930e+00 2.101414442062377930e+00 2.101414442062377930e+00 2.101414442062377930e+00 2.101414442062377930e+00 2.101414442062377930e+00 2.101414442062377930e+00 2.101414680480957031e+00 2.101414680480957031e+00 2.053530931472778320e+00 2.002835273742675781e+00 1.954582571983337402e+00
1.954583168029785156e+00 2.002833604812622070e+00 2.027679204940795898e+00 2.027679204940795898e+00 2.027679204940795898e+00 2.027679204940795898e+00 2.027679204940795898e+00 2.027679443359375000e+00 2.027679443359375000e+00 2.027679443359375000e+00 2.027679443359375000e+00 2.027679681777954102e+00 2.027679681777954102e+00 2.027679681777954102e+00 2.027679681777954102e+00 2.027679681777954102e+00 2.027679920196533203e+00 2.027679920196533203e+00 2.027679920196533203e+00 2.027679920196533203e+00 2.027680397033691406e+00 2.027680397033691406e+00 2.027680397033691406e+00 2.027680397033691406e+00 2.027680397033691406e+00 2.027680397033691406e+00 2.027680397033691406e+00 2.027680397033691406e+00 2.027680635452270508e+00 2.027680635452270508e+00 2.027680635452270508e+00 2.027680873870849609e+00 2.027680873870849609e+00 2.027680873870849609e+00 2.027680873870849609e+00 1.972838640213012695e+00 1.972838640213012695e+00 1.867792010307312012e+00 1.836553096771240234e+00 1.822029471397399902e+00 1.814042210578918457e+00 1.810258388519287109e+00 1.810265302658081055e+00 1.814053893089294434e+00 1.822061061859130859e+00 1.836553335189819336e+00 1.867792487144470215e+00 1.972839117050170898e+00 1.972839117050170898e+00 1.972839117050170898e+00 2.027681350708007812e+00 2.027681350708007812e+00 2.027681350708007812e+00 2.027681589126586914e+00 2.027681589126586914e+00 2.027681589126586914e+00 1.818170785903930664e+00 1.720001697540283203e+00 1.720001697540283203e+00 1.720001697540283203e+00 1.720001697540283203e+00 1.720001697540283203e+00 1.720001697540283203e+00 1.720001816749572754e+00 1.720001816749572754e+00 1.720001816749572754e+00 1.720001816749572754e+00 1.720001816749572754e+00 1.720001816749572754e+00 2.027682065963745117e+00 2.027682065963745117e+00 2.027682065963745117e+00 2.027682065963745117e+00 2.027682065963745117e+00 2.027682065963745117e+00 2.027682304382324219e+00 2.027682304382324219e+00 2.027682304382324219e+00 2.027682304382324219e+00 2.027682304382324219e+00 2.027682304382324219e+00 2.027682304382324219e+00 2.002835273742675781e+00 1.954582571983337402e+00
1.954579830169677734e+00 1.958945751190185547e+00 1.958945751190185547e+00 1.958945751190185547e+00 1.958945989608764648e+00 1.958945989608764648e+00 1.958945989608764648e+00 1.958945989608764648e+00 1.958945989608764648e+00 1.958946228027343750e+00 1.958946228027343750e+00 1.958946228027343750e+00 1.958946228027343750e+00 1.958946466445922852e+00 1.958946466445922852e+00 1.958946466445922852e+00 1.958946466445922852e+00 1.958946466445922852e+00 1.958946704864501953e+00 1.958946704864501953e+00 1.958946704864501953e+00 1.958946704864501953e+00 1.958946704864501953e+00 1.958946943283081055e+00 1.958946943283081055e+00 1.958946943283081055e+00 1.958947062492370605e+00 1.958947062492370605e+00 1.958947300910949707e+00 1.958947300910949707e+00 1.958947300910949707e+00 1.958947300910949707e+00 1.958947300910949707e+00 1.958947300910949707e+00 1.958947300910949707e+00 1.905923008918762207e+00 1.905923008918762207e+00 1.849226236343383789e+00 1.837925434112548828e+00 1.823802471160888672e+00 1.815633296966552734e+00 1.811758399009704590e+00 1.811767220497131348e+00 1.815647363662719727e+00 1.823845148086547852e+00 1.837933897972106934e+00 1.849236845970153809e+00 1.905923485755920410e+00 1.905923485755920410e+00 1.905923485755920410e+00 1.958947896957397461e+00 1.958947896957397461e+00 1.958947896957397461e+00 1.958947896957397461e+00 1.958947896957397461e+00 1.958947896957397461e+00 1.818170785903930664e+00 1.720001697540283203e+00 1.720001697540283203e+00 1.720001697540283203e+00 1.720001697540283203e+00 1.720001697540283203e+00 1.720001816749572754e+00 1.720001816749572754e+00 1.720001816749572754e+00 1.720001816749572754e+00 1.720001816749572754e+00 1.720001816749572754e+00 1.720002055168151855e+00 1.958948373794555664e+00 1.958948373794555664e+00 1.958948612213134766e+00 1.958948612213134766e+00 1.958948612213134766e+00 1.958948612213134766e+00 1.958948612213134766e+00 1.958948612213134766e+00 1.958948612213134766e+00 1.958948612213134766e+00 1.958948850631713867e+00 1.958948850631713867e+00 1.958948850631713867e+00 1.958948850631713867e+00 1.954582571983337402e+00
1.894719362258911133e+00 1.894719362258911133e+00 1.894719362258911133e+00 1.894719362258911133e+00 1.894719600677490234e+00 1.894719600677490234e+00 1.894719600677490234e+00 1.894719600677490234e+00 1.894719839096069336e+00 1.894719839096069336e+00 1.894719839096069336e+00 1.894719839096069336e+00 1.894719839096069336e+00 1.894719958305358887e+00 1.894719958305358887e+00 1.894719958305358887e+00 1.894719958305358887e+00 1.894719958305358887e+00 1.894720196723937988e+00 1.894720196723937988e+00 1.894720196723937988e+00 1.894720196723937988e+00 1.894720435142517090e+00 1.894720435142517090e+00 1.894720435142517090e+00 1.894720435142517090e+00 1.894720435142517090e+00 1.894720673561096191e+00 1.894720673561096191e+00 1.894720673561096191e+00 1.894720673561096191e+00 1.894720673561096191e+00 1.894720911979675293e+00 1.894720911979675293e+00 1.894720911979675293e+00 1.843397498130798340e+00 1.843397736549377441e+00 1.808478832244873047e+00 1.805001020431518555e+00 1.805001020431518555e+00 1.805001020431518555e+00 1.805001020431518555e+00 1.805001020431518555e+00 1.805001020431518555e+00 1.805001020431518555e+00 1.805001020431518555e+00 1.808521866798400879e+00 1.843398213386535645e+00 1.843398213386535645e+00 1.843398213386535645e+00 1.894721388816833496e+00 1.894721388816833496e+00 1.894721388816833496e+00 1.894721627235412598e+00 1.894721627235412598e+00 1.894721627235412598e+00 1.818171024322509766e+00 1.720001697540283203e+00 1.720001697540283203e+00 1.720001697540283203e+00 1.720001697540283203e+00 1.720001816749572754e+00 1.720001816749572754e+00 1.720001816749572754e+00 1.720001816749572754e+00 1.720001816749572754e+00 1.720001816749572754e+00 1.720002055168151855e+00 1.720002055168151855e+00 1.894721984863281250e+00 1.894721984863281250e+00 1.894721984863281250e+00 1.894721984863281250e+00 1.894721984863281250e+00 1.894721984863281250e+00 1.894722223281860352e+00 1.894722223281860352e+00 1.894722223281860352e+00 1.894722223281860352e+00 1.894722223281860352e+00 1.894722223281860352e+00 1.894722223281860352e+00 1.894722461700439453e+00 1.894722461700439453e+00
1.834570646286010742e+00 1.834570646286010742e+00 1.834570646286010742e+00 1.834570646286010742e+00 1.834570884704589844e+00 1.834570884704589844e+00 1.834570884704589844e+00 1.834570884704589844e+00 1.834571123123168945e+00 1.834571123123168945e+00 1.834571123123168945e+00 1.834571123123168945e+00 1.834571123123168945e+00 1.834571242332458496e+00 1.834571242332458496e+00 1.834571242332458496e+00 1.834571242332458496e+00 1.834571480751037598e+00 1.834571480751037598e+00 1.834571480751037598e+00 1.834571480751037598e+00 1.834571480751037598e+00 1.834571719169616699e+00 1.834571719169616699e+00 1.834571719169616699e+00 1.834571719169616699e+00 1.834571719169616699e+00 1.834571838378906250e+00 1.834571838378906250e+00 1.834571838378906250e+00 1.834571838378906250e+00 1.834572076797485352e+00 1.834572076797485352e+00 1.834572076797485352e+00 1.834572076797485352e+00 1.805000901222229004e+00 1.805000901222229004e+00 1.805001020431518555e+00 1.805001020431518555e+00 1.805001020431518555e+00 1.805001020431518555e+00 1.805001020431518555e+00 1.805001258850097656e+00 1.805001258850097656e+00 1.805001258850097656e+00 1.805001258850097656e+00 1.805001258850097656e+00 1.805001258850097656e+00 1.805001497268676758e+00 1.805001497268676758e+00 1.834572792053222656e+00 1.834572792053222656e+00 1.834572792053222656e+00 1.834572792053222656e+00 1.834572792053222656e+00 1.834572792053222656e+00 1.834572792053222656e+00 1.720001697540283203e+00 1.720001697540283203e+00 1.720001697540283203e+00 1.720001816749572754e+00 1.720001816749572754e+00 1.720001816749572754e+00 1.720001816749572754e+00 1.720001816749572754e+00 1.720001816749572754e+00 1.720002055168151855e+00 1.720002055168151855e+00 1.720002055168151855e+00 1.834573149681091309e+00 1.834573149681091309e+00 1.834573388099670410e+00 1.834573388099670410e+00 1.834573388099670410e+00 1.834573388099670410e+00 1.834573388099670410e+00 1.834573388099670410e+00 1.834573388099670410e+00 1.834573388099670410e+00 1.834573626518249512e+00 1.834573626518249512e+00 1.834573626518249512e+00 1.834573626518249512e+00 1.834573626518249512e+00
1.778123378753662109e+00 1.778123378753662109e+00 1.778123378753662109e+00 1.778123617172241211e+00 1.778123617172241211e+00 1.778123617172241211e+00 1.778123617172241211e+00 1.778123617172241211e+00 1.778123736381530762e+00 1.778123736381530762e+00 1.778123736381530762e+00 1.778123736381530762e+00 1.778123974800109863e+00 1.778123974800109863e+00 1.778123974800109863e+00 1.778123974800109863e+00 1.778123974800109863e+00 1.778124213218688965e+00 1.778124213218688965e+00 1.778124213218688965e+00 1.778124213218688965e+00 1.778124213218688965e+00 1.778124332427978516e+00 1.778124332427978516e+00 1.778124332427978516e+00 1.778124332427978516e+00 1.778124570846557617e+00 1.778124570846557617e+00 1.778124570846557617e+00 1.778124570846557617e+00 1.778124570846557617e+00 1.778124690055847168e+00 1.778124690055847168e+00 1.778124690055847168e+00 1.778124690055847168e+00 1.778124690055847168e+00 1.778124928474426270e+00 1.778124928474426270e+00 1.778124928474426270e+00 1.778124928474426270e+00 1.778125047683715820e+00 1.778125047683715820e+00 1.778125047683715820e+00 1.778125047683715820e+00 1.778125166893005371e+00 1.778125166893005371e+00 1.778125405311584473e+00 1.778125405311584473e+00 1.778125405311584473e+00 1.778125405311584473e+00 1.778125405311584473e+00 1.778125405311584473e+00 1.778125405311584473e+00 1.778125643730163574e+00 1.778125643730163574e+00 1.778125643730163574e+00 1.778125643730163574e+00 1.720001697540283203e+00 1.720001697540283203e+00 1.720001816749572754e+00 1.720001816749572754e+00 1.720001816749572754e+00 1.720001816749572754e+00 1.720001816749572754e+00 1.720001816749572754e+00 1.720002055168151855e+00 1.720002055168151855e+00 1.720002055168151855e+00 1.720002055168151855e+00 1.778126001358032227e+00 1.778126001358032227e+00 1.778126001358032227e+00 1.778126001358032227e+00 1.778126001358032227e+00 1.778126001358032227e+00 1.778126120567321777e+00 1.778126120567321777e+00 1.778126120567321777e+00 1.778126120567321777e+00 1.778126120567321777e+00 1.778126120567321777e+00 1.778126120567321777e+00 1.778126358985900879e+00 1.778126358985900879e+00
1.725046038627624512e+00 1.725046038627624512e+00 1.725046038627624512e+00 1.725046277046203613e+00 1.725046277046203613e+00 1.725046277046203613e+00 1.725046277046203613e+00 1.725046277046203613e+00 1.725046396255493164e+00 1.725046396255493164e+00 1.725046396255493164e+00 1.725046396255493164e+00 1.725046634674072266e+00 1.725046634674072266e+00 1.725046634674072266e+00 1.725046634674072266e+00 1.725046634674072266e+00 1.725046753883361816e+00 1.725046753883361816e+00 1.725046753883361816e+00 1.725046753883361816e+00 1.725046992301940918e+00 1.725046992301940918e+00 1.725046992301940918e+00 1.725046992301940918e+00 1.725046992301940918e+00 1.725047111511230469e+00 1.725047111511230469e+00 1.725047111511230469e+00 1.725047111511230469e+00 1.725047111511230469e+00 1.725047230720520020e+00 1.725047230720520020e+00 1.725047230720520020e+00 1.725047230720520020e+00 1.725047469139099121e+00 1.725047469139099121e+00 1.725047469139099121e+00 1.725047469139099121e+00 1.725047469139099121e+00 1.725047588348388672e+00 1.725047588348388672e+00 1.725047588348388672e+00 1.725047588348388672e+00 1.725047826766967773e+00 1.725047826766967773e+00 1.725047826766967773e+00 1.725047826766967773e+00 1.725047826766967773e+00 1.725047945976257324e+00 1.725048065185546875e+00 1.725048065185546875e+00 1.725048065185546875e+00 1.725048065185546875e+00 1.725048065185546875e+00 1.725048065185546875e+00 1.725048065185546875e+00 1.725048303604125977e+00 1.725048303604125977e+00 1.725048303604125977e+00 1.725048303604125977e+00 1.725048303604125977e+00 1.725048303604125977e+00 1.725048303604125977e+00 1.725048422813415527e+00 1.725048422813415527e+00 1.725048422813415527e+00 1.725048422813415527e+00 1.725048422813415527e+00 1.725048422813415527e+00 1.725048422813415527e+00 1.725048661231994629e+00 1.725048661231994629e+00 1.725048661231994629e+00 1.725048661231994629e+00 1.725048661231994629e+00 1.725048661231994629e+00 1.725048661231994629e+00 1.725048661231994629e+00 1.725048780441284180e+00 1.725048780441284180e+00 1.725048780441284180e+00 1.725048780441284180e+00 1.725048780441284180e+00
1.675045609474182129e+00 1.675045609474182129e+00 1.675045609474182129e+00 1.675045728683471680e+00 1.675045728683471680e+00 1.675045728683471680e+00 1.675045728683471680e+00 1.675045967102050781e+00 1.675045967102050781e+00 1.675045967102050781e+00 1.675045967102050781e+00 1.675045967102050781e+00 1.675046086311340332e+00 1.675046086311340332e+00 1.675046086311340332e+00 1.675046086311340332e+00 1.675046086311340332e+00 1.675046205520629883e+00 1.675046205520629883e+00 1.675046205520629883e+00 1.675046205520629883e+00 1.675046443939208984e+00 1.675046443939208984e+00 1.675046443939208984e+00 1.675046443939208984e+00 1.675046443939208984e+00 1.675046563148498535e+00 1.675046563148498535e+00 1.675046563148498535e+00 1.675046563148498535e+00 1.675046801567077637e+00 1.675046801567077637e+00 1.675046801567077637e+00 1.675046801567077637e+00 1.675046801567077637e+00 1.675046920776367188e+00 1.675046920776367188e+00 1.675046920776367188e+00 1.675046920776367188e+00 1.675046920776367188e+00 1.675047039985656738e+00 1.675047039985656738e+00 1.675047039985656738e+00 1.675047039985656738e+00 1.675047278404235840e+00 1.675047278404235840e+00 1.675047278404235840e+00 1.675047278404235840e+00 1.675047278404235840e+00 1.675047397613525391e+00 1.675047397613525391e+00 1.675047397613525391e+00 1.675047397613525391e+00 1.675047636032104492e+00 1.675047636032104492e+00 1.675047755241394043e+00 1.675047755241394043e+00 1.675047755241394043e+00 1.675047755241394043e+00 1.675047755241394043e+00 1.675047874450683594e+00 1.675047874450683594e+00 1.675047874450683594e+00 1.675047874450683594e+00 1.675047874450683594e+00 1.675047874450683594e+00 1.675047874450683594e+00 1.675047874450683594e+00 1.675047993659973145e+00 1.675047993659973145e+00 1.675047993659973145e+00 1.675047993659973145e+00 1.675047993659973145e+00 1.675047993659973145e+00 1.675047993659973145e+00 1.675048232078552246e+00 1.675048232078552246e+00 1.675048232078552246e+00 1.675048232078552246e+00 1.675048232078552246e+00 1.675048232078552246e+00 1.675048232078552246e+00 1.675048351287841797e+00 1.675048351287841797e+00
1.627862095832824707e+00 1.627862095832824707e+00 1.627862215042114258e+00 1.627862215042114258e+00 1.627862215042114258e+00 1.627862215042114258e+00 1.627862215042114258e+00 1.627862334251403809e+00 1.627862334251403809e+00 1.627862334251403809e+00 1.627862334251403809e+00 1.627862334251403809e+00 1.627862572669982910e+00 1.627862572669982910e+00 1.627862572669982910e+00 1.627862572669982910e+00 1.627862691879272461e+00 1.627862691879272461e+00 1.627862691879272461e+00 1.627862691879272461e+00 1.627862691879272461e+00 1.627862811088562012e+00 1.627862811088562012e+00 1.627862811088562012e+00 1.627862811088562012e+00 1.627863049507141113e+00 1.627863049507141113e+00 1.627863049507141113e+00 1.627863049507141113e+00 1.627863049507141113e+00 1.627863168716430664e+00 1.627863168716430664e+00 1.627863168716430664e+00 1.627863168716430664e+00 1.627863168716430664e+00 1.627863287925720215e+00 1.627863287925720215e+00 1.627863287925720215e+00 1.627863287925720215e+00 1.627863526344299316e+00 1.627863526344299316e+00 1.627863526344299316e+00 1.627863526344299316e+00 1.627863526344299316e+00 1.627863645553588867e+00 1.627863645553588867e+00 1.627863645553588867e+00 1.627863645553588867e+00 1.627863645553588867e+00 1.627863764762878418e+00 1.627863764762878418e+00 1.627863764762878418e+00 1.627863764762878418e+00 1.627864003181457520e+00 1.627864003181457520e+00 1.627864003181457520e+00 1.627864003181457520e+00 1.627864003181457520e+00 1.627864122390747070e+00 1.627864122390747070e+00 1.627864122390747070e+00 1.627864241600036621e+00 1.627864241600036621e+00 1.627864241600036621e+00 1.627864360809326172e+00 1.627864360809326172e+00 1.627864360809326172e+00 1.627864360809326172e+00 1.627864360809326172e+00 1.627864360809326172e+00 1.627864360809326172e+00 1.627864599227905273e+00 1.627864599227905273e+00 1.627864599227905273e+00 1.627864599227905273e+00 1.627864599227905273e+00 1.627864599227905273e+00 1.627864599227905273e+00 1.627864599227905273e+00 1.627864718437194824e+00 1.627864718437194824e+00 1.627864718437194824e+00 1.627864718437194824e+00 1.627864718437194824e+00
